# .PCD v0.7 - Point Cloud Data file format
VERSION 0.7
FIELDS x y z normal_x normal_y normal_z curvature
SIZE 4 4 4 4 4 4 4
TYPE F F F F F F F
COUNT 1 1 1 1 1 1 1
WIDTH 677
HEIGHT 1
VIEWPOINT 0 0 0 1 0 0 0
POINTS 677
DATA ascii
0.33071044 0.23365411 -0.94 -0.40323737 0.13530232 0.90503746 nan
0.33250776 0.23365411 -0.94 -0.33553702 0.1466613 0.93054038 nan
0.33430511 0.23365411 -0.94 -0.3679595 0.15738434 0.91642559 nan
0.33610246 0.23365411 -0.94 -0.38846585 0.15214914 0.90881509 nan
0.33682138 0.2329084 -0.93699998 -0.35672957 0.16305465 0.91986799 nan
0.33861297 0.2329084 -0.93699998 -0.29939863 0.17357951 0.93820602 nan
0.34040457 0.2329084 -0.93699998 -0.22558899 0.17269604 0.95879382 nan
0.3421962 0.2329084 -0.93699998 -0.17674193 0.17675196 0.96825671 nan
0.34325355 0.23241127 -0.935 -0.11240097 0.16173352 0.9804123 nan
0.34504133 0.23241127 -0.935 -0.051562484 0.14384264 0.98825634 nan
0.34682912 0.23241127 -0.935 -0.059853856 0.14421698 0.9877342 nan
0.3486169 0.23241127 -0.935 -0.032432355 0.13532169 0.99027079 nan
0.35040468 0.23241127 -0.935 0.075476013 0.11972981 0.98993331 nan
0.35219246 0.23241127 -0.935 0.17560929 0.083221808 0.98093599 nan
0.35398024 0.23241127 -0.935 0.18481658 0.10013881 0.97765797 nan
0.35576802 0.23241127 -0.935 0.26776516 0.024340054 0.96317667 nan
0.35755581 0.23241127 -0.935 0.28731236 0.082963966 0.95423716 nan
0.35934359 0.23241127 -0.935 0.36306471 0.060503811 0.92979741 nan
0.36190382 0.2329084 -0.93699998 0.41249564 0.041227978 0.91002619 nan
0.36485988 0.23365411 -0.94 0.40963024 0.063899308 0.91001099 nan
0.36548701 0.2329084 -0.93699998 0.27109119 -0.10837358 0.9564333 nan
0.36845455 0.23365411 -0.94 0.19382572 -0.12904292 0.97251195 nan
0.31302384 0.23752986 -0.963 -0.9341858 0.35602224 0.023347637 nan
0.31421125 0.23703656 -0.96100003 -0.94708163 0.32097945 0.0028994184 nan
0.31506211 0.23629658 -0.958 -0.94728971 0.3197726 0.019693013 nan
0.31590149 0.2355566 -0.95499998 -0.91610807 0.3812325 0.12412831 nan
0.31772751 0.2355566 -0.95499998 -0.88627511 0.36250219 0.28828576 nan
0.31888431 0.2350633 -0.95300001 -0.85381353 0.20280431 0.47945061 nan
0.31969693 0.23432332 -0.94999999 -0.78707218 0.069031857 0.61298615 nan
0.32083654 0.23383002 -0.94800001 -0.73308587 0.094232939 0.67357659 nan
0.32162812 0.23309004 -0.94499999 -0.68923652 0.09737175 0.71796358 nan
0.32343504 0.23309004 -0.94499999 -0.69142038 0.092447072 0.7165134 nan
0.32420939 0.23235007 -0.94199997 -0.66533393 0.094116993 0.7405895 nan
0.32601056 0.23235007 -0.94199997 -0.59987766 0.081573993 0.79592246 nan
0.32781172 0.23235007 -0.94199997 -0.55198807 0.061496362 0.83158118 nan
0.32961288 0.23235007 -0.94199997 -0.514103 0.059569664 0.8556574 nan
0.33071044 0.23185676 -0.94 -0.4242937 0.063479364 0.90329683 nan
0.33250776 0.23185676 -0.94 -0.36245131 0.092077561 0.92744303 nan
0.33430511 0.23185676 -0.94 -0.37850189 0.10334136 0.91981345 nan
0.33610246 0.23185676 -0.94 -0.39809006 0.10612845 0.91118664 nan
0.33610246 0.23062348 -0.935 -0.37450019 0.11738994 0.91976583 nan
0.33789024 0.23062348 -0.935 -0.31084752 0.12846527 0.94173801 nan
0.34040457 0.23111679 -0.93699998 -0.23574945 0.12786096 0.96336585 nan
0.34146577 0.23062348 -0.935 -0.17975685 0.13764161 0.97403407 nan
0.34215221 0.22988351 -0.93199998 -0.099661909 0.13008349 0.98648149 nan
0.34393424 0.22988351 -0.93199998 -0.043732338 0.1202436 0.99178076 nan
0.34682912 0.23062348 -0.935 -0.052169528 0.11531722 0.99195784 nan
0.3486169 0.23062348 -0.935 -0.019096637 0.098360673 0.99496764 nan
0.35040468 0.23062348 -0.935 0.086605474 0.083990864 0.99269587 nan
0.35219246 0.23062348 -0.935 0.17782219 0.070157669 0.98155856 nan
0.35398024 0.23062348 -0.935 0.24456222 3.708178e-05 0.96963358 nan
0.35576802 0.23062348 -0.935 0.262501 0.018815484 0.96474832 nan
0.35755581 0.23062348 -0.935 0.33059543 -0.061299592 0.94177967 nan
0.35934359 0.23062348 -0.935 0.35124391 -0.037554927 0.93553048 nan
0.36190382 0.23111679 -0.93699998 0.45831683 -0.13894491 0.87786102 nan
0.36369541 0.23111679 -0.93699998 0.45248529 -0.025077533 0.89141923 nan
0.36665723 0.23185676 -0.94 0.40815955 -0.14394511 0.90149069 nan
0.36845455 0.23185676 -0.94 0.24981469 -0.24981469 0.93551332 nan
0.37025189 0.23185676 -0.94 0.12835683 -0.51349646 0.84843731 nan
0.31118253 0.23568854 -0.963 -0.94391638 0.32861093 0.032196544 nan
0.31302384 0.23568854 -0.963 -0.95670539 0.29076868 0.012968769 nan
0.31421125 0.23519906 -0.96100003 -0.9667567 0.25554505 -0.008841739 nan
0.31506211 0.23446482 -0.958 -0.96796739 0.25091237 0.0090516182 nan
0.31590149 0.23373058 -0.95499998 -0.95438397 0.26666078 0.13432541 nan
0.31772751 0.23373058 -0.95499998 -0.89580327 0.18275361 0.40513903 nan
0.31888431 0.2332411 -0.95300001 -0.82009387 0.041582379 0.57071608 nan
0.31969693 0.23250687 -0.94999999 -0.800367 0.056504697 0.59684157 nan
0.31982124 0.23128314 -0.94499999 -0.74269199 0.067115493 0.66626126 nan
0.32162812 0.23128314 -0.94499999 -0.69084436 0.069826558 0.71962374 nan
0.32343504 0.23128314 -0.94499999 -0.69294697 0.064790547 0.71807146 nan
0.32420939 0.2305489 -0.94199997 -0.66560656 0.06074487 0.74382657 nan
0.32601056 0.2305489 -0.94199997 -0.58965087 0.033074982 0.80698073 nan
0.32781172 0.2305489 -0.94199997 -0.54158509 -0.0088078855 0.84059989 nan
0.32961288 0.2305489 -0.94199997 -0.52252448 -0.034935955 0.85190833 nan
0.33141404 0.2305489 -0.94199997 -0.45338213 -0.02948878 0.89082831 nan
0.33250776 0.23005943 -0.94 -0.39293513 -0.0088385213 0.91952366 nan
0.33323815 0.22932519 -0.93699998 -0.40100646 0.0030732062 0.91607004 nan
0.33502978 0.22932519 -0.93699998 -0.42013091 0.014856802 0.9073419 nan
0.33610246 0.2288357 -0.935 -0.39655659 0.026633183 0.91762388 nan
0.33789024 0.2288357 -0.935 -0.32653385 0.03252776 0.94462562 nan
0.34040457 0.22932519 -0.93699998 -0.24887399 0.038156759 0.96778399 nan
0.34146577 0.2288357 -0.935 -0.19118038 0.052170165 0.98016745 nan
0.34325355 0.2288357 -0.935 -0.10218226 0.059582088 0.99297971 nan
0.34504133 0.2288357 -0.935 -0.038937919 0.066715956 0.99701196 nan
0.34682912 0.2288357 -0.935 -0.03906944 0.055788718 0.99767786 nan
0.3486169 0.2288357 -0.935 -0.0055283704 0.041542672 0.99912143 nan
0.35040468 0.2288357 -0.935 0.0982638 0.029233448 0.99473095 nan
0.35219246 0.2288357 -0.935 0.19450372 0.010136925 0.98084933 nan
0.35398024 0.2288357 -0.935 0.25743806 -0.051485591 0.96492225 nan
0.35576802 0.2288357 -0.935 0.2785334 -0.041349761 0.95953596 nan
0.35755581 0.2288357 -0.935 0.31775242 -0.054701075 0.94659454 nan
0.35934359 0.2288357 -0.935 0.38749465 -0.10798938 0.91552502 nan
0.36190382 0.22932519 -0.93699998 0.42522368 -0.12971762 0.89574438 nan
0.36485988 0.23005943 -0.94 0.42020112 -0.22274649 0.87966758 nan
0.36665723 0.23005943 -0.94 0.4073965 -0.21710156 0.88707101 nan
0.36845455 0.23005943 -0.94 0.33597907 -0.20668235 0.91891271 nan
0.37103966 0.2305489 -0.94199997 0.24948016 -0.24948069 0.93569177 nan
0.37284082 0.2305489 -0.94199997 0.90326405 -0.020919379 0.42857486 nan
0.30934122 0.23384723 -0.963 -0.95202482 0.30376631 0.037078526 nan
0.31118253 0.23384723 -0.963 -0.96137339 0.2739827 0.026353519 nan
0.31302384 0.23384723 -0.963 -0.97227228 0.23378621 0.0055505638 nan
0.31421125 0.23336157 -0.96100003 -0.98052603 0.19551429 -0.018513031 nan
0.31604874 0.23336157 -0.96100003 -0.98123658 0.19239835 0.012556504 nan
0.31689388 0.23263307 -0.958 -0.97481239 0.13425165 0.17809384 nan
0.31772751 0.23190457 -0.95499998 -0.87499797 0.048183594 0.48172289 nan
0.31888431 0.23141891 -0.95300001 -0.82014322 0.041455533 0.57065457 nan
0.31969693 0.2306904 -0.94999999 -0.80262214 0.042426083 0.5949772 nan
0.31982124 0.22947624 -0.94499999 -0.7463786 0.044951446 0.66400176 nan
0.32162812 0.22947624 -0.94499999 -0.69466674 0.046797853 0.71780777 nan
0.32343504 0.22947624 -0.94499999 -0.69306809 0.041784283 0.71966016 nan
0.32420939 0.22874774 -0.94199997 -0.65028846 0.032171793 0.75900584 nan
0.32601056 0.22874774 -0.94199997 -0.55080163 0.0053865602 0.83461887 nan
0.32781172 0.22874774 -0.94199997 -0.50406945 -0.043877512 0.86254781 nan
0.32961288 0.22874774 -0.94199997 -0.50911009 -0.061522529 0.85849977 nan
0.33141404 0.22874774 -0.94199997 -0.46139127 -0.06213858 0.88501799 nan
0.33250776 0.22826208 -0.94 -0.40804586 -0.056554575 0.91120815 nan
0.33323815 0.22753359 -0.93699998 -0.4163616 -0.044505496 0.90810925 nan
0.33610246 0.22826208 -0.94 -0.43617564 -0.03843195 0.89904058 nan
0.33610246 0.22704794 -0.935 -0.40753123 -0.032565203 0.91261041 nan
0.33789024 0.22704794 -0.935 -0.33742192 -0.032706849 0.94078511 nan
0.33967802 0.22704794 -0.935 -0.26796627 -0.026711799 0.96305788 nan
0.34146577 0.22704794 -0.935 -0.21285248 -0.017724572 0.97692358 nan
0.34325355 0.22704794 -0.935 -0.12194715 -0.0087331291 0.99249822 nan
0.34504133 0.22704794 -0.935 -0.042609073 -0.0056912163 0.99907571 nan
0.34682912 0.22704794 -0.935 -0.028351298 -0.017012326 0.99945325 nan
0.3486169 0.22704794 -0.935 0.0056008468 -0.022421023 0.99973291 nan
0.35040468 0.22704794 -0.935 0.11750272 -0.032041531 0.9925555 nan
0.35219246 0.22704794 -0.935 0.21722557 -0.050526191 0.97481292 nan
0.35398024 0.22704794 -0.935 0.27670756 -0.093299374 0.95641416 nan
0.35576802 0.22704794 -0.935 0.30359277 -0.1061344 0.94687223 nan
0.35755581 0.22704794 -0.935 0.33067834 -0.087150782 0.9397108 nan
0.35934359 0.22704794 -0.935 0.4102594 -0.13229018 0.90232283 nan
0.36190382 0.22753359 -0.93699998 0.44165885 -0.16257742 0.88232988 nan
0.36369541 0.22753359 -0.93699998 0.41407579 -0.22403865 0.88224036 nan
0.36548701 0.22753359 -0.93699998 0.76150405 -0.10176151 0.640122 nan
0.36845455 0.22826208 -0.94 0.72660661 -0.087001838 0.68152285 nan
0.37103966 0.22874774 -0.94199997 0.8541624 -0.40524042 0.32586306 nan
0.37284082 0.22874774 -0.94199997 0.89951867 -0.25195614 0.35690948 nan
0.37464198 0.22874774 -0.94199997 0.89635366 -0.24664551 0.36839664 nan
0.30934122 0.23200591 -0.963 -0.97378832 0.22586313 0.02687126 nan
0.31053627 0.23152408 -0.96100003 -0.98101693 0.19329906 0.015533403 nan
0.31237376 0.23152408 -0.96100003 -0.9882102 0.15300904 -0.0053638839 nan
0.31421125 0.23152408 -0.96100003 -0.99308509 0.11305978 -0.031615928 nan
0.31604874 0.23152408 -0.96100003 -0.99535155 0.095725507 0.010580956 nan
0.31590149 0.23007855 -0.95499998 -0.9787333 0.025591681 0.20353401 nan
0.31772751 0.23007855 -0.95499998 -0.87129927 0.016956775 0.49045914 nan
0.31888431 0.2295967 -0.95300001 -0.81978136 0.0023619144 0.57267165 nan
0.31969693 0.22887395 -0.94999999 -0.80714637 0.009438931 0.59027594 nan
0.31982124 0.22766934 -0.94499999 -0.75132257 0.010016426 0.65985912 nan
0.32162812 0.22766934 -0.94499999 -0.6962623 0.010465987 0.71771109 nan
0.32240823 0.22694658 -0.94199997 -0.6914835 -7.3165436e-05 0.72239232 nan
0.32420939 0.22694658 -0.94199997 -0.64757329 -0.011081099 0.76192248 nan
0.32601056 0.22694658 -0.94199997 -0.53155214 -0.023148477 0.84670925 nan
0.32781172 0.22694658 -0.94199997 -0.48484987 -0.035055682 0.87389463 nan
0.32961288 0.22694658 -0.94199997 -0.50694036 -0.034922034 0.86127347 nan
0.33071044 0.22646475 -0.94 -0.45861199 -0.026444262 0.88824308 nan
0.33144656 0.22574198 -0.93699998 -0.41161695 -0.026612112 0.91096836 nan
0.33323815 0.22574198 -0.93699998 -0.41971761 -0.014692443 0.90753585 nan
0.33502978 0.22574198 -0.93699998 -0.43471214 -0.020624207 0.90033329 nan
0.33610246 0.22526015 -0.935 -0.40658349 -0.02070187 0.91337907 nan
0.33789024 0.22526015 -0.935 -0.33615619 -0.014826213 0.94168955 nan
0.33967802 0.22526015 -0.935 -0.26773569 -0.023832494 0.96319765 nan
0.34146577 0.22526015 -0.935 -0.21345949 -0.032697842 0.97640467 nan
0.34215221 0.22453739 -0.93199998 -0.11687826 -0.046794038 0.99204332 nan
0.34504133 0.22526015 -0.935 -0.031457432 -0.057170775 0.99786872 nan
0.34682912 0.22526015 -0.935 -0.022906715 -0.077219695 0.99675089 nan
0.3486169 0.22526015 -0.935 0.011289991 -0.081975549 0.99657041 nan
0.35040468 0.22526015 -0.935 0.13151629 -0.10197991 0.9860546 nan
0.35219246 0.22526015 -0.935 0.23655987 -0.10572992 0.96584713 nan
0.35398024 0.22526015 -0.935 0.26834726 -0.12069589 0.95573127 nan
0.35576802 0.22526015 -0.935 0.30715379 -0.15072115 0.93964863 nan
0.35755581 0.22526015 -0.935 0.32476512 -0.12768875 0.9371357 nan
0.36011222 0.22574198 -0.93699998 0.36934689 -0.119635 0.92155862 nan
0.36190382 0.22574198 -0.93699998 0.43519628 -0.10670891 0.89398962 nan
0.36485988 0.22646475 -0.94 0.46322194 -0.16935581 0.86991036 nan
0.36665723 0.22646475 -0.94 0.76214188 -0.097414888 0.64003915 nan
0.3692385 0.22694658 -0.94199997 0.87863678 -0.030768711 0.4764984 nan
0.37103966 0.22694658 -0.94199997 0.89290601 -0.16351277 0.41950253 nan
0.37284082 0.22694658 -0.94199997 0.90404898 -0.095325135 0.41666371 nan
0.37464198 0.22694658 -0.94199997 0.90300322 -0.060582221 0.42534089 nan
0.30869877 0.22968659 -0.96100003 -0.96324265 0.2645199 0.046825506 nan
0.31053627 0.22968659 -0.96100003 -0.97252595 0.23023452 0.034429919 nan
0.31237376 0.22968659 -0.96100003 -0.98188025 0.18906595 0.012850984 nan
0.31421125 0.22968659 -0.96100003 -0.98927277 0.14534955 -0.014595254 nan
0.31506211 0.22896956 -0.958 -0.99142349 0.12679712 0.031653643 nan
0.31590149 0.22825253 -0.95499998 -0.96893817 0.074975818 0.23566382 nan
0.31772751 0.22825253 -0.95499998 -0.87103724 -0.043403964 0.4892956 nan
0.31888431 0.22777452 -0.95300001 -0.82624853 -0.058477335 0.56026208 nan
0.31969693 0.22705749 -0.94999999 -0.81621748 -0.047492895 0.57578939 nan
0.31982124 0.22586244 -0.94499999 -0.7569173 -0.043084081 0.65208894 nan
0.32162812 0.22586244 -0.94499999 -0.69784701 -0.037194706 0.71528047 nan
0.32240823 0.22514541 -0.94199997 -0.68893707 -0.048354615 0.7232064 nan
0.32420939 0.22514541 -0.94199997 -0.64345306 -0.055295758 0.76348567 nan
0.32601056 0.22514541 -0.94199997 -0.53724086 -0.060698301 0.84124196 nan
0.32781172 0.22514541 -0.94199997 -0.49422303 -0.052566182 0.86774445 nan
0.32961288 0.22514541 -0.94199997 -0.51657385 -0.058333673 0.85425329 nan
0.33141404 0.22514541 -0.94199997 -0.46970874 -0.065002635 0.88042516 nan
0.33250776 0.22466742 -0.94 -0.4194867 -0.056514084 0.90600055 nan
0.33323815 0.22395039 -0.93699998 -0.42286634 -0.056530379 0.90442711 nan
0.33431467 0.22347237 -0.935 -0.43392268 -0.092804588 0.8961575 nan
0.33610246 0.22347237 -0.935 -0.41813061 -0.11742648 0.90076506 nan
0.33789024 0.22347237 -0.935 -0.33877826 -0.12719771 0.93222845 nan
0.33967802 0.22347237 -0.935 -0.25386193 -0.15124416 0.95534253 nan
0.34146577 0.22347237 -0.935 -0.19237106 -0.16841945 0.96676171 nan
0.34325355 0.22347237 -0.935 -0.097499676 -0.1890223 0.97712046 nan
0.34504133 0.22347237 -0.935 -0.011524464 -0.1899755 0.98172122 nan
0.34682912 0.22347237 -0.935 -0.0029066694 -0.20384623 0.9789986 nan
0.3486169 0.22347237 -0.935 0.036756363 -0.2206421 0.97466207 nan
0.34928039 0.22275534 -0.93199998 0.15254025 -0.23543079 0.95984572 nan
0.35219246 0.22347237 -0.935 0.24467982 -0.21191844 0.94616193 nan
0.35398024 0.22347237 -0.935 0.27984983 -0.2038074 0.93816131 nan
0.35576802 0.22347237 -0.935 0.27151215 -0.1999986 0.94142532 nan
0.35755581 0.22347237 -0.935 0.44910967 -0.15368681 0.88015944 nan
0.36011222 0.22395039 -0.93699998 0.3591921 -0.13171156 0.92392266 nan
0.36306253 0.22466742 -0.94 0.52506179 -0.29377651 0.79875243 nan
0.36485988 0.22466742 -0.94 0.7362327 -0.43477783 0.51858419 nan
0.36743733 0.22514541 -0.94199997 0.70964408 -0.30330539 0.63593322 nan
0.3692385 0.22514541 -0.94199997 0.86426365 -0.20163162 0.46086109 nan
0.37103966 0.22514541 -0.94199997 0.8947078 -0.13707104 0.42509937 nan
0.37284082 0.22514541 -0.94199997 0.89447957 -0.11372647 0.43240336 nan
0.30956683 0.2271378 -0.958 -0.97305959 0.2262221 0.044480957 nan
0.3113986 0.2271378 -0.958 -0.98283386 0.18310116 0.022619825 nan
0.31323034 0.2271378 -0.958 -0.99100697 0.13366026 -0.0063432213 nan
0.31506211 0.2271378 -0.958 -0.99230176 0.10947987 0.057892263 nan
0.31590149 0.22642651 -0.95499998 -0.93747532 0.012949724 0.34781057 nan
0.31772751 0.22642651 -0.95499998 -0.80276495 -0.1204565 0.58400238 nan
0.31888431 0.22595231 -0.95300001 -0.82704198 -0.11030141 0.55121225 nan
0.31969693 0.22524102 -0.94999999 -0.82463926 -0.10866594 0.55512321 nan
0.32083654 0.22476684 -0.94800001 -0.7689811 -0.095850088 0.63204503 nan
0.32162812 0.22405554 -0.94499999 -0.70311934 -0.085267283 0.7059409 nan
0.32343504 0.22405554 -0.94499999 -0.68850791 -0.099948429 0.71830851 nan
0.32524192 0.22405554 -0.94499999 -0.64847273 -0.10250341 0.75430512 nan
0.32601056 0.22334425 -0.94199997 -0.5422883 -0.10440353 0.83368051 nan
0.32781172 0.22334425 -0.94199997 -0.49199021 -0.10601295 0.86412209 nan
0.32961288 0.22334425 -0.94199997 -0.50143683 -0.11801945 0.85710704 nan
0.33141404 0.22334425 -0.94199997 -0.46799198 -0.14905305 0.87107223 nan
0.33250776 0.22287007 -0.94 -0.42599091 -0.13195081 0.89505357 nan
0.33430511 0.22287007 -0.94 -0.39176282 -0.13557085 0.91002339 nan
0.33431467 0.22168459 -0.935 -0.38417867 -0.18155448 0.90523189 nan
0.33610246 0.22168459 -0.935 -0.38162816 -0.22731517 0.89592844 nan
0.33789024 0.22168459 -0.935 -0.3093867 -0.25497332 0.916116 nan
0.33967802 0.22168459 -0.935 -0.22925326 -0.27761289 0.93293834 nan
0.34146577 0.22168459 -0.935 -0.1736597 -0.28449476 0.94281763 nan
0.34325355 0.22168459 -0.935 -0.088256501 -0.28819194 0.95349681 nan
0.34504133 0.22168459 -0.935 -0.011512242 -0.28166339 0.95944422 nan
0.34682912 0.22168459 -0.935 0.011369777 -0.2793732 0.96011525 nan
0.3486169 0.22168459 -0.935 0.058633164 -0.30156621 0.95164067 nan
0.35040468 0.22168459 -0.935 0.14699192 -0.30458084 0.94107592 nan
0.35219246 0.22168459 -0.935 0.22667445 -0.27770436 0.93354112 nan
0.35398024 0.22168459 -0.935 0.26319277 -0.25087684 0.93155277 nan
0.35576802 0.22168459 -0.935 0.25481266 -0.22737551 0.93987811 nan
0.35755581 0.22168459 -0.935 0.53031421 -0.32947105 0.78116304 nan
0.36011222 0.22215877 -0.93699998 0.68247396 -0.40562057 0.60803062 nan
0.36306253 0.22287007 -0.94 0.65471476 -0.39101279 0.64688301 nan
0.36563617 0.22334425 -0.94199997 0.7461437 -0.42938751 0.50881821 nan
0.36743733 0.22334425 -0.94199997 0.8272112 -0.39707997 0.39755365 nan
0.3692385 0.22334425 -0.94199997 0.86089152 -0.30367959 0.40822095 nan
0.37103966 0.22334425 -0.94199997 0.86968213 -0.29578042 0.39517954 nan
0.37284082 0.22334425 -0.94199997 0.87401932 -0.26748899 0.40563506 nan
0.30956683 0.22530603 -0.958 -0.99674451 0.077856414 0.020941921 nan
0.3113986 0.22530603 -0.958 -0.99940634 0.034450304 0.00040987146 nan
0.31323034 0.22530603 -0.958 -0.9995178 -0.014458792 -0.027479352 nan
0.31506211 0.22530603 -0.958 -0.99561751 -0.085126996 0.038719438 nan
0.31590149 0.22460048 -0.95499998 -0.92465907 -0.18067069 0.33520707 nan
0.31706214 0.22413012 -0.95300001 -0.81966662 -0.16708782 0.5479309 nan
0.31888431 0.22413012 -0.95300001 -0.83224928 -0.13745904 0.53709048 nan
0.31969693 0.22342457 -0.94999999 -0.8289327 -0.1432617 0.54069078 nan
0.32083654 0.2229542 -0.94800001 -0.78103727 -0.14233048 0.60804838 nan
0.32162812 0.22224864 -0.94499999 -0.70499629 -0.14430757 0.6943742 nan
0.32343504 0.22224864 -0.94499999 -0.68408 -0.14664088 0.71451455 nan
0.32524192 0.22224864 -0.94499999 -0.64970791 -0.1499341 0.74525124 nan
0.32601056 0.22154309 -0.94199997 -0.54389817 -0.16588639 0.82259142 nan
0.32781172 0.22154309 -0.94199997 -0.48829108 -0.16862826 0.85623378 nan
0.32961288 0.22154309 -0.94199997 -0.4840616 -0.1870185 0.85481483 nan
0.33141404 0.22154309 -0.94199997 -0.46292868 -0.2149222 0.859945 nan
0.33250776 0.22107273 -0.94 -0.4384107 -0.21300846 0.87316859 nan
0.33430511 0.22107273 -0.94 -0.38093719 -0.21750495 0.89865375 nan
0.33502978 0.22036718 -0.93699998 -0.34823918 -0.24515249 0.90478158 nan
0.33682138 0.22036718 -0.93699998 -0.34781221 -0.27824989 0.89532322 nan
0.33789024 0.21989681 -0.935 -0.28659961 -0.31075522 0.90625149 nan
0.33967802 0.21989681 -0.935 -0.21870968 -0.33248788 0.91739738 nan
0.34146577 0.21989681 -0.935 -0.17294572 -0.32198092 0.93081588 nan
0.34325355 0.21989681 -0.935 -0.087972656 -0.31650439 0.94450295 nan
0.34504133 0.21989681 -0.935 -0.011483545 -0.30944133 0.95084924 nan
0.34682912 0.21989681 -0.935 0.025432192 -0.30533552 0.95190519 nan
0.3486169 0.21989681 -0.935 0.080042847 -0.31721088 0.94497108 nan
0.35040468 0.21989681 -0.935 0.15405068 -0.31849402 0.93532348 nan
0.35219246 0.21989681 -0.935 0.21501529 -0.30204666 0.92872828 nan
0.35398024 0.21989681 -0.935 0.24157156 -0.27937824 0.92929596 nan
0.35576802 0.21989681 -0.935 0.36236352 -0.38469484 0.84894198 nan
0.35755581 0.21989681 -0.935 0.57759672 -0.46252036 0.6726492 nan
0.36011222 0.22036718 -0.93699998 0.7018227 -0.49158898 0.51554364 nan
0.36306253 0.22107273 -0.94 0.74853075 -0.48386568 0.45340461 nan
0.36563617 0.22154309 -0.94199997 0.80518526 -0.42460981 0.41398472 nan
0.36743733 0.22154309 -0.94199997 0.82329983 -0.3893334 0.41303381 nan
0.3692385 0.22154309 -0.94199997 0.85331517 -0.30697793 0.42144725 nan
0.37222132 0.22224864 -0.94499999 0.86317784 -0.2714335 0.42573214 nan
0.37402821 0.22224864 -0.94499999 0.86655605 -0.24257551 0.43616232 nan
0.37583512 0.22224864 -0.94499999 0.86178017 -0.18419263 0.47266054 nan
0.30773509 0.22347428 -0.958 -0.99883741 0.035190348 0.032945838 nan
0.30956683 0.22347428 -0.958 -0.99982291 -0.011692126 0.014748003 nan
0.3113986 0.22347428 -0.958 -0.99831241 -0.057796679 -0.0056437715 nan
0.31323034 0.22347428 -0.958 -0.99397528 -0.10461845 -0.032683581 nan
0.31506211 0.22347428 -0.958 -0.98148054 -0.19079715 0.017102415 nan
0.31590149 0.22277446 -0.95499998 -0.93136716 -0.23794213 0.27557001 nan
0.31772751 0.22277446 -0.95499998 -0.83995754 -0.21721479 0.49728176 nan
0.31888431 0.22230792 -0.95300001 -0.8359589 -0.17767717 0.51923358 nan
0.31969693 0.2216081 -0.94999999 -0.82546449 -0.17870179 0.53541946 nan
0.31982124 0.22044174 -0.94499999 -0.77852887 -0.18725432 0.5990231 nan
0.32162812 0.22044174 -0.94499999 -0.7097562 -0.19156556 0.67790025 nan
0.32343504 0.22044174 -0.94499999 -0.68932456 -0.19208781 0.69852263 nan
0.32524192 0.22044174 -0.94499999 -0.64290524 -0.20622662 0.73766083 nan
0.32601056 0.21974193 -0.94199997 -0.53582245 -0.22450827 0.81393516 nan
0.32781172 0.21974193 -0.94199997 -0.47717008 -0.22816308 0.84867561 nan
0.32961288 0.21974193 -0.94199997 -0.46120438 -0.25279304 0.85052121 nan
0.33141404 0.21974193 -0.94199997 -0.44487396 -0.26858199 0.85437167 nan
0.33321521 0.21974193 -0.94199997 -0.42540556 -0.28135705 0.86015606 nan
0.33501637 0.21974193 -0.94199997 -0.36149833 -0.29495627 0.88448846 nan
0.33681753 0.21974193 -0.94199997 -0.32176229 -0.32761252 0.88833505 nan
0.33789977 0.21927539 -0.94 -0.31189203 -0.35086063 0.88296103 nan
0.33861297 0.21857557 -0.93699998 -0.2474221 -0.37554932 0.89316577 nan
0.33967802 0.21810904 -0.935 -0.21058978 -0.3855873 0.89831758 nan
0.34146577 0.21810904 -0.935 -0.18031995 -0.38150012 0.90661037 nan
0.34325355 0.21810904 -0.935 -0.08705321 -0.38018036 0.92080653 nan
0.34504133 0.21810904 -0.935 -0.011371859 -0.37997979 0.92492491 nan
0.34682912 0.21810904 -0.935 0.030661397 -0.38216695 0.92358446 nan
0.3486169 0.21810904 -0.935 0.089703903 -0.38300923 0.91937864 nan
0.35115421 0.21857557 -0.93699998 0.15251525 -0.38342208 0.91089338 nan
0.3529458 0.21857557 -0.93699998 0.20435429 -0.36240813 0.90934026 nan
0.35398024 0.21810904 -0.935 0.35343692 -0.44798619 0.82121289 nan
0.356529 0.21857557 -0.93699998 0.4892081 -0.56357479 0.66562659 nan
0.35755581 0.21810904 -0.935 0.61257356 -0.56120175 0.55660242 nan
0.36011222 0.21857557 -0.93699998 0.68172771 -0.54406869 0.48911828 nan
0.36306253 0.21927539 -0.94 0.72698551 -0.5235222 0.44431579 nan
0.36563617 0.21974193 -0.94199997 0.80361623 -0.4343144 0.40690506 nan
0.36743733 0.21974193 -0.94199997 0.83032 -0.36765748 0.41880378 nan
0.3692385 0.21974193 -0.94199997 0.83296543 -0.34656712 0.43134663 nan
0.37103966 0.21974193 -0.94199997 0.84707028 -0.31521547 0.42791495 nan
0.37284082 0.21974193 -0.94199997 0.85052723 -0.28867733 0.43962348 nan
0.37464198 0.21974193 -0.94199997 0.85379398 -0.22613984 0.46893135 nan
0.30773509 0.22164252 -0.958 -0.99892157 -0.02903503 0.036229461 nan
0.30956683 0.22164252 -0.958 -0.99666214 -0.080019005 0.016171239 nan
0.3113986 0.22164252 -0.958 -0.99229252 -0.12385973 -0.0037852146 nan
0.31323034 0.22164252 -0.958 -0.98595071 -0.16434969 -0.029837355 nan
0.31506211 0.22164252 -0.958 -0.96817172 -0.25022942 0.0053646974 nan
0.31590149 0.22094844 -0.95499998 -0.9279719 -0.31082016 0.2055701 nan
0.31706214 0.22048573 -0.95300001 -0.85554987 -0.31633303 0.40983889 nan
0.31888431 0.22048573 -0.95300001 -0.84080261 -0.27157572 0.46829227 nan
0.31969693 0.21979165 -0.94999999 -0.82392085 -0.24813971 0.50949109 nan
0.31982124 0.21863484 -0.94499999 -0.78161591 -0.23926705 0.57604486 nan
0.32162812 0.21863484 -0.94499999 -0.70921135 -0.23570591 0.66442591 nan
0.32343504 0.21863484 -0.94499999 -0.67771107 -0.2388254 0.69546407 nan
0.32420939 0.21794076 -0.94199997 -0.63425964 -0.25361809 0.73033738 nan
0.32601056 0.21794076 -0.94199997 -0.53371263 -0.27302551 0.80037987 nan
0.32781172 0.21794076 -0.94199997 -0.46428958 -0.28394866 0.83893281 nan
0.32961288 0.21794076 -0.94199997 -0.44509673 -0.30263904 0.84279209 nan
0.33141404 0.21794076 -0.94199997 -0.43440032 -0.30935082 0.84593058 nan
0.33321521 0.21794076 -0.94199997 -0.41202256 -0.31925926 0.85341126 nan
0.33501637 0.21794076 -0.94199997 -0.33221868 -0.34698224 0.87705988 nan
0.33681753 0.21794076 -0.94199997 -0.28549933 -0.38648099 0.87699628 nan
0.33682138 0.21678397 -0.93699998 -0.28975558 -0.41683307 0.86156362 nan
0.33861297 0.21678397 -0.93699998 -0.24061017 -0.44007865 0.86512285 nan
0.34040457 0.21678397 -0.93699998 -0.20427009 -0.44931394 0.86970729 nan
0.34146577 0.21632126 -0.935 -0.16466531 -0.46515745 0.8697781 nan
0.34398779 0.21678397 -0.93699998 -0.070849508 -0.4616023 0.8842532 nan
0.34504133 0.21632126 -0.935 0.0053943209 -0.47795352 0.8783685 nan
0.34682912 0.21632126 -0.935 0.043118905 -0.48556393 0.87313718 nan
0.34936258 0.21678397 -0.93699998 0.099822596 -0.48561972 0.86845195 nan
0.35115421 0.21678397 -0.93699998 0.15115201 -0.47586089 0.86643493 nan
0.3529458 0.21678397 -0.93699998 0.32459563 -0.41044989 0.85215527 nan
0.3547374 0.21678397 -0.93699998 0.49780679 -0.52001697 0.6940971 nan
0.356529 0.21678397 -0.93699998 0.56686807 -0.58067137 0.58436406 nan
0.35832062 0.21678397 -0.93699998 0.64752209 -0.56651956 0.50967711 nan
0.36011222 0.21678397 -0.93699998 0.7018854 -0.54236466 0.46173307 nan
0.36306253 0.21747805 -0.94 0.73959827 -0.51975656 0.42760652 nan
0.36563617 0.21794076 -0.94199997 0.79286659 -0.43801242 0.42368332 nan
0.36743733 0.21794076 -0.94199997 0.82044095 -0.37093827 0.43506476 nan
0.36845455 0.21747805 -0.94 0.82596606 -0.34215513 0.44800657 nan
0.37025189 0.21747805 -0.94 0.82756525 -0.32661182 0.45657468 nan
0.31053627 0.22049911 -0.96100003 -0.99291772 -0.11593585 0.025947517 nan
0.31237376 0.22049911 -0.96100003 -0.98797214 -0.15455005 0.0050293608 nan
0.31421125 0.22049911 -0.96100003 -0.98091167 -0.19342454 -0.019977309 nan
0.31506211 0.21981077 -0.958 -0.96351814 -0.26761165 0.0040883743 nan
0.31590149 0.21912242 -0.95499998 -0.91011238 -0.38830006 0.14463225 nan
0.31772751 0.21912242 -0.95499998 -0.84971112 -0.41750011 0.32200107 nan
0.31888431 0.21866353 -0.95300001 -0.84566987 -0.35926026 0.39468297 nan
0.31969693 0.21797518 -0.94999999 -0.83496684 -0.30594245 0.45741627 nan
0.32083654 0.2175163 -0.94800001 -0.79124957 -0.29241374 0.5370459 nan
0.32162812 0.21682794 -0.94499999 -0.71739644 -0.2911565 0.63290614 nan
0.32343504 0.21682794 -0.94499999 -0.6792016 -0.28740788 0.67533839 nan
0.32420939 0.2161396 -0.94199997 -0.62499571 -0.28921002 0.72507775 nan
0.32601056 0.2161396 -0.94199997 -0.51835454 -0.31012347 0.79695171 nan
0.32781172 0.2161396 -0.94199997 -0.44975433 -0.33803648 0.82671171 nan
0.32961288 0.2161396 -0.94199997 -0.43270805 -0.35899016 0.82697624 nan
0.33141404 0.2161396 -0.94199997 -0.42305878 -0.38457298 0.82044184 nan
0.33321521 0.2161396 -0.94199997 -0.38243285 -0.40836388 0.82884502 nan
0.33501637 0.2161396 -0.94199997 -0.28383568 -0.4469364 0.8483426 nan
0.33502978 0.21499236 -0.93699998 -0.23705278 -0.48191825 0.84354061 nan
0.33682138 0.21499236 -0.93699998 -0.24071901 -0.50927305 0.82625383 nan
0.33861297 0.21499236 -0.93699998 -0.19801286 -0.5337975 0.82210165 nan
0.34040457 0.21499236 -0.93699998 -0.1675434 -0.55487871 0.81488568 nan
0.34146577 0.21453348 -0.935 -0.14368916 -0.56871718 0.80988526 nan
0.34398779 0.21499236 -0.93699998 -0.046177175 -0.5619607 0.82587403 nan
0.34504133 0.21453348 -0.935 0.033718497 -0.56927484 0.8214556 nan
0.34682912 0.21453348 -0.935 0.056745354 -0.57059813 0.81926656 nan
0.35048115 0.21568072 -0.94 0.0988314 -0.56699574 0.81777024 nan
0.3522785 0.21568072 -0.94 0.13053729 -0.55111825 0.82415342 nan
0.3529458 0.21499236 -0.93699998 0.40391809 -0.44168264 0.80110341 nan
0.3547374 0.21499236 -0.93699998 0.5927251 -0.47081769 0.65345812 nan
0.35767052 0.21568072 -0.94 0.63429618 -0.52218348 0.57008141 nan
0.35832062 0.21499236 -0.93699998 0.69049567 -0.51570284 0.50721431 nan
0.36126518 0.21568072 -0.94 0.73293144 -0.49749395 0.46401656 nan
0.36306253 0.21568072 -0.94 0.74728137 -0.50273556 0.43454286 nan
0.36563617 0.2161396 -0.94199997 0.79988474 -0.39798778 0.44921052 nan
0.36665723 0.21568072 -0.94 0.82643628 -0.32742807 0.4580327 nan
0.36845455 0.21568072 -0.94 0.8311497 -0.29453796 0.47163308 nan
0.30934122 0.21911669 -0.963 -0.99518317 -0.057578549 0.079342574 nan
0.31118253 0.21911669 -0.963 -0.99160528 -0.12142215 0.044448886 nan
0.31302384 0.21911669 -0.963 -0.98539102 -0.1692227 0.019187303 nan
0.31486517 0.21911669 -0.963 -0.97656995 -0.21504657 -0.0081203897 nan
0.31604874 0.21866162 -0.96100003 -0.95271355 -0.30325741 0.019281236 nan
0.31689388 0.21797901 -0.958 -0.87047011 -0.47789523 0.11788879 nan
0.31772751 0.21729641 -0.95499998 -0.83927381 -0.49666035 0.22124191 nan
0.31888431 0.21684134 -0.95300001 -0.84458363 -0.45052126 0.28932521 nan
0.32070652 0.21684134 -0.95300001 -0.82703382 -0.42493644 0.36802724 nan
0.32151341 0.21615873 -0.94999999 -0.77260411 -0.43876728 0.45887503 nan
0.32264918 0.21570367 -0.94800001 -0.6962074 -0.45724159 0.55337632 nan
0.32343504 0.21502104 -0.94499999 -0.65717065 -0.4633069 0.59453624 nan
0.32524192 0.21502104 -0.94499999 -0.60065562 -0.47934601 0.63987517 nan
0.32601056 0.21433844 -0.94199997 -0.47690523 -0.50681704 0.71812099 nan
0.32781172 0.21433844 -0.94199997 -0.39591077 -0.531537 0.7488144 nan
0.32961288 0.21433844 -0.94199997 -0.37231398 -0.55140167 0.74655098 nan
0.33141404 0.21433844 -0.94199997 -0.35647735 -0.57008666 0.74021959 nan
0.33250776 0.21388337 -0.94 -0.31832892 -0.59303451 0.73957872 nan
0.33501637 0.21433844 -0.94199997 -0.22621988 -0.60788196 0.76112032 nan
0.33681753 0.21433844 -0.94199997 -0.19155189 -0.6208204 0.76019067 nan
0.33789977 0.21388337 -0.94 -0.2042651 -0.62957704 0.7496056 nan
0.33969712 0.21388337 -0.94 -0.16226944 -0.63902152 0.75187778 nan
0.34040457 0.21320076 -0.93699998 -0.13974458 -0.64685202 0.74970251 nan
0.3421962 0.21320076 -0.93699998 -0.12599854 -0.64959824 0.74976432 nan
0.34582338 0.21433844 -0.94199997 -0.033797506 -0.63989925 0.76771522 nan
0.34688649 0.21388337 -0.94 0.03746951 -0.62874269 0.77671021 nan
0.3494257 0.21433844 -0.94199997 0.054855227 -0.62851816 0.77585816 nan
0.35048115 0.21388337 -0.94 0.09120249 -0.6199854 0.77929473 nan
0.3522785 0.21388337 -0.94 0.11559722 -0.60126203 0.79064608 nan
0.35407585 0.21388337 -0.94 0.4446131 -0.53308362 0.71982026 nan
0.35587317 0.21388337 -0.94 0.63900119 -0.48245409 0.59909558 nan
0.35767052 0.21388337 -0.94 0.66990346 -0.5118559 0.53780383 nan
0.35946786 0.21388337 -0.94 0.71391219 -0.50129592 0.48890883 nan
0.36126518 0.21388337 -0.94 0.74883926 -0.48259732 0.45424607 nan
0.36383501 0.21433844 -0.94199997 0.74583125 -0.50724101 0.4317897 nan
0.36563617 0.21433844 -0.94199997 0.77509719 -0.46140495 0.43165931 nan
0.36743733 0.21433844 -0.94199997 0.81042451 -0.37921584 0.44655064 nan
0.3692385 0.21433844 -0.94199997 0.81800115 -0.34239423 0.46221235 nan
0.31409079 0.21930599 -0.972 -0.97757953 -0.20351729 0.054027054 nan
0.31594929 0.21930599 -0.972 -0.96389604 -0.26544154 0.021099692 nan
0.31486517 0.21727538 -0.963 -0.94599706 -0.32404125 -0.009322796 nan
0.31670648 0.21727538 -0.963 -0.89910215 -0.43742937 0.016458772 nan
0.31689388 0.21614726 -0.958 -0.82168525 -0.56093532 0.10091962 nan
0.31772751 0.21547039 -0.95499998 -0.80713278 -0.57087564 0.15045854 nan
0.31955352 0.21547039 -0.95499998 -0.80693787 -0.55478871 0.20263471 nan
0.32137954 0.21547039 -0.95499998 -0.77505755 -0.56833106 0.27619833 nan
0.32151341 0.21434227 -0.94999999 -0.71556962 -0.59697235 0.36274531 nan
0.32264918 0.21389103 -0.94800001 -0.64251494 -0.61932719 0.45122987 nan
0.32343504 0.21321414 -0.94499999 -0.59698343 -0.62853175 0.49855649 nan
0.32524192 0.21321414 -0.94499999 -0.53623348 -0.64599931 0.54326642 nan
0.32704884 0.21321414 -0.94499999 -0.42792135 -0.66117412 0.61622411 nan
0.32781172 0.21253727 -0.94199997 -0.35580659 -0.66099095 0.66067588 nan
0.32961288 0.21253727 -0.94199997 -0.34006685 -0.65957326 0.67031163 nan
0.33246952 0.21321414 -0.94499999 -0.32799247 -0.6611172 0.67479253 nan
0.33321521 0.21253727 -0.94199997 -0.29299614 -0.67350441 0.6786347 nan
0.33501637 0.21253727 -0.94199997 -0.21481964 -0.67780113 0.70316291 nan
0.33681753 0.21253727 -0.94199997 -0.18290712 -0.68047655 0.70957494 nan
0.33789977 0.21208604 -0.94 -0.19029331 -0.68460673 0.70363486 nan
0.33969712 0.21208604 -0.94 -0.15048175 -0.68930453 0.70867091 nan
0.34040457 0.21140917 -0.93699998 -0.1341597 -0.69484031 0.70653951 nan
0.3421962 0.21140917 -0.93699998 -0.12355953 -0.69740665 0.70594394 nan
0.34508914 0.21208604 -0.94 -0.037281483 -0.69316107 0.71981782 nan
0.34762454 0.21253727 -0.94199997 0.038302951 -0.68550527 0.72705942 nan
0.3494257 0.21253727 -0.94199997 0.057450615 -0.679712 0.73122561 nan
0.35048115 0.21208604 -0.94 0.076351486 -0.67519605 0.7336762 nan
0.3522785 0.21208604 -0.94 0.1954433 -0.62694991 0.75414568 nan
0.35407585 0.21208604 -0.94 0.51407886 -0.56915295 0.641707 nan
0.35587317 0.21208604 -0.94 0.66409677 -0.4998059 0.55603009 nan
0.35767052 0.21208604 -0.94 0.69063634 -0.51177418 0.510988 nan
0.35946786 0.21208604 -0.94 0.72849578 -0.49509126 0.47347495 nan
0.36126518 0.21208604 -0.94 0.75908524 -0.47458282 0.44560164 nan
0.36383501 0.21253727 -0.94199997 0.75599718 -0.49696761 0.42601812 nan
0.36563617 0.21253727 -0.94199997 0.75603765 -0.51097697 0.40903518 nan
0.36743733 0.21253727 -0.94199997 0.78558445 -0.44658354 0.42827597 nan
0.31764528 0.21990828 -0.98299998 -0.9491747 -0.3066569 0.07091409 nan
0.31594929 0.21744746 -0.972 -0.92662287 -0.3747291 0.03079205 nan
0.31486517 0.21543406 -0.963 -0.89967746 -0.4365344 -0.0042520021 nan
0.31670648 0.21543406 -0.963 -0.84503305 -0.53471136 0.0016844069 nan
0.31788623 0.21498664 -0.96100003 -0.79809207 -0.59869552 0.067917734 nan
0.31872562 0.2143155 -0.958 -0.78460199 -0.61116368 0.10430046 nan
0.31955352 0.21364437 -0.95499998 -0.77695435 -0.61318099 0.14265706 nan
0.32137954 0.21364437 -0.95499998 -0.73664874 -0.64435667 0.20531213 nan
0.32151341 0.21252581 -0.94999999 -0.6827957 -0.67464769 0.28042918 nan
0.32264918 0.21207839 -0.94800001 -0.61509907 -0.69847214 0.36577284 nan
0.32446182 0.21207839 -0.94800001 -0.5698992 -0.70508641 0.42198116 nan
0.32524192 0.21140724 -0.94499999 -0.52514786 -0.70914781 0.47045609 nan
0.32704884 0.21140724 -0.94499999 -0.43654516 -0.71435595 0.54692221 nan
0.32885572 0.21140724 -0.94499999 -0.36955485 -0.70294827 0.60769475 nan
0.33066264 0.21140724 -0.94499999 -0.34333536 -0.68721044 0.64020509 nan
0.33141404 0.21073611 -0.94199997 -0.31412351 -0.68222249 0.66022623 nan
0.33321521 0.21073611 -0.94199997 -0.27805808 -0.67952573 0.67891711 nan
0.33608332 0.21140724 -0.94499999 -0.20381092 -0.67654198 0.70763838 nan
0.33789021 0.21140724 -0.94499999 -0.1719204 -0.67892677 0.71379393 nan
0.33861873 0.21073611 -0.94199997 -0.17956801 -0.68150151 0.70944405 nan
0.34041989 0.21073611 -0.94199997 -0.13412181 -0.69028598 0.71099687 nan
0.34149447 0.21028869 -0.94 -0.11804774 -0.6955896 0.70867473 nan
0.34329179 0.21028869 -0.94 -0.10439036 -0.70538324 0.70109707 nan
0.34582338 0.21073611 -0.94199997 -0.012130822 -0.71056241 0.70352954 nan
0.34762454 0.21073611 -0.94199997 0.042025261 -0.71417385 0.69870567 nan
0.3494257 0.21073611 -0.94199997 0.0490322 -0.71257865 0.69987679 nan
0.35122687 0.21073611 -0.94199997 0.064977281 -0.71295583 0.698192 nan
0.3522785 0.21028869 -0.94 0.24411702 -0.70325786 0.66770893 nan
0.35407585 0.21028869 -0.94 0.55665565 -0.58830887 0.5865382 nan
0.35663036 0.21073611 -0.94199997 0.68046737 -0.51220977 0.524028 nan
0.35843152 0.21073611 -0.94199997 0.70474523 -0.51301944 0.49004602 nan
0.36023268 0.21073611 -0.94199997 0.73871404 -0.49365526 0.45891824 nan
0.36203384 0.21073611 -0.94199997 0.76675272 -0.4716306 0.43549374 nan
0.36383501 0.21073611 -0.94199997 0.7771647 -0.4533349 0.43646586 nan
0.36563617 0.21073611 -0.94199997 0.77790201 -0.44987112 0.43873051 nan
0.31757456 0.21669793 -0.977 -0.92369652 -0.37531513 0.076963037 nan
0.31584606 0.21425815 -0.96600002 -0.89171225 -0.45137912 0.033257857 nan
0.31769311 0.21425815 -0.96600002 -0.84599781 -0.53279018 0.02054471 nan
0.31788623 0.21314915 -0.96100003 -0.79316932 -0.60679269 0.051817074 nan
0.31872562 0.21248375 -0.958 -0.77820688 -0.62253428 0.082735814 nan
0.32055739 0.21248375 -0.958 -0.75890821 -0.64115566 0.11392038 nan
0.32137954 0.21181834 -0.95499998 -0.71329957 -0.68109876 0.16525178 nan
0.32151341 0.21070935 -0.94999999 -0.6614964 -0.71578366 0.22377728 nan
0.32264918 0.21026576 -0.94800001 -0.5998804 -0.74323118 0.29622778 nan
0.32446182 0.21026576 -0.94800001 -0.55633587 -0.75349444 0.35033795 nan
0.32524192 0.20960036 -0.94499999 -0.52003264 -0.75095266 0.40698424 nan
0.32704884 0.20960036 -0.94499999 -0.4495056 -0.75059193 0.48431024 nan
0.32885572 0.20960036 -0.94499999 -0.38804501 -0.74781984 0.53868949 nan
0.33066264 0.20960036 -0.94499999 -0.35228819 -0.7418291 0.57059842 nan
0.33246952 0.20960036 -0.94499999 -0.32348657 -0.73284721 0.59857458 nan
0.33427644 0.20960036 -0.94499999 -0.29128179 -0.71930945 0.63067335 nan
0.33501637 0.20893495 -0.94199997 -0.20652953 -0.71378702 0.66921866 nan
0.33681753 0.20893495 -0.94199997 -0.16942534 -0.70832056 0.68525696 nan
0.33861873 0.20893495 -0.94199997 -0.16423583 -0.7100305 0.68475056 nan
0.34041989 0.20893495 -0.94199997 -0.11772426 -0.71738017 0.68666345 nan
0.34149447 0.20849136 -0.94 -0.10282229 -0.71615613 0.69032454 nan
0.34329179 0.20849136 -0.94 -0.072550222 -0.72297376 0.68705565 nan
0.34582338 0.20893495 -0.94199997 0.016137233 -0.72536296 0.68817741 nan
0.34762454 0.20893495 -0.94199997 0.05899537 -0.72931075 0.68163431 nan
0.3494257 0.20893495 -0.94199997 0.060758639 -0.73885858 0.67111564 nan
0.35122687 0.20893495 -0.94199997 0.14981328 -0.76044267 0.63188839 nan
0.35302803 0.20893495 -0.94199997 0.33193272 -0.75056714 0.57137507 nan
0.35482919 0.20893495 -0.94199997 0.5733664 -0.62868959 0.52535719 nan
0.35776612 0.20960036 -0.94499999 0.6825974 -0.54535449 0.48646593 nan
0.35957301 0.20960036 -0.94499999 0.70719039 -0.53584325 0.4612523 nan
0.36023268 0.20893495 -0.94199997 0.7396577 -0.51211244 0.43663171 nan
0.36318681 0.20960036 -0.94499999 0.76596922 -0.47129822 0.43722895 nan
0.36499372 0.20960036 -0.94499999 0.77794832 -0.42741618 0.46055603 nan
0.31944263 0.21482985 -0.977 -0.87117356 -0.48486686 0.077206627 nan
0.31867972 0.21307075 -0.96899998 -0.82332492 -0.56481159 0.055892766 nan
0.31854779 0.21175143 -0.963 -0.78220463 -0.6193887 0.067183003 nan
0.31972373 0.21131165 -0.96100003 -0.78291214 -0.61746567 0.076056622 nan
0.32055739 0.21065199 -0.958 -0.75776529 -0.64387912 0.10588457 nan
0.32137954 0.20999232 -0.95499998 -0.70787591 -0.69009072 0.15062061 nan
0.32252872 0.20955256 -0.95300001 -0.65723318 -0.72794086 0.19531217 nan
0.32332987 0.20889288 -0.94999999 -0.59876978 -0.75921398 0.25508624 nan
0.32446182 0.20845312 -0.94800001 -0.56435114 -0.76996857 0.29775205 nan
0.32627445 0.20845312 -0.94800001 -0.54972011 -0.76004326 0.34661505 nan
0.32704884 0.20779346 -0.94499999 -0.4747856 -0.76308197 0.43850258 nan
0.32885572 0.20779346 -0.94499999 -0.39137888 -0.76573455 0.51036584 nan
0.33066264 0.20779346 -0.94499999 -0.35581923 -0.76464391 0.53731948 nan
0.33246952 0.20779346 -0.94499999 -0.33898541 -0.75270051 0.56438529 nan
0.33427644 0.20779346 -0.94499999 -0.29766902 -0.74727786 0.59411192 nan
0.33608332 0.20779346 -0.94499999 -0.2093906 -0.74243766 0.63635033 nan
0.33789021 0.20779346 -0.94499999 -0.1686829 -0.72354096 0.66935372 nan
0.33861873 0.20713378 -0.94199997 -0.15185213 -0.72006291 0.67708951 nan
0.34041989 0.20713378 -0.94199997 -0.11284532 -0.711326 0.69374442 nan
0.34222105 0.20713378 -0.94199997 -0.098112233 -0.70994711 0.69738728 nan
0.34511781 0.20779346 -0.94499999 -0.055958666 -0.71073759 0.70122796 nan
0.34692472 0.20779346 -0.94499999 0.038071994 -0.74139953 0.66998303 nan
0.34873161 0.20779346 -0.94499999 0.076424107 -0.77249944 0.63039994 nan
0.35053852 0.20779346 -0.94499999 0.13750878 -0.79389328 0.59230459 nan
0.35234541 0.20779346 -0.94499999 0.2450581 -0.80776983 0.53614765 nan
0.35415232 0.20779346 -0.94499999 0.37858319 -0.77883768 0.50008678 nan
0.35595921 0.20779346 -0.94499999 0.57825083 -0.66349143 0.47476849 nan
0.35965905 0.20889288 -0.94999999 0.67840391 -0.57971877 0.451325 nan
0.35957301 0.20779346 -0.94499999 0.70308989 -0.56579268 0.43074757 nan
0.36137992 0.20779346 -0.94499999 0.7192567 -0.55869031 0.41295877 nan
0.36318681 0.20779346 -0.94499999 0.74663806 -0.50265622 0.43573865 nan
0.36499372 0.20779346 -0.94499999 0.76407874 -0.44422942 0.4678075 nan
0.31966636 0.21187189 -0.972 -0.82445055 -0.55944383 0.085462525 nan
0.31954017 0.21056403 -0.96600002 -0.80631715 -0.58654559 0.076268643 nan
0.32038912 0.20991011 -0.963 -0.79736716 -0.59820902 0.079696402 nan
0.32156122 0.20947416 -0.96100003 -0.76111376 -0.63970888 0.10713699 nan
0.32238913 0.20882024 -0.958 -0.70532423 -0.69255757 0.15126725 nan
0.32320556 0.2081663 -0.95499998 -0.65410674 -0.73329252 0.18554384 nan
0.32435092 0.20773035 -0.95300001 -0.59614283 -0.76972646 0.22833088 nan
0.32514632 0.20707643 -0.94999999 -0.57357442 -0.77704281 0.25926206 nan
0.32627445 0.20664048 -0.94800001 -0.56861758 -0.76880723 0.29259133 nan
0.32704884 0.20598656 -0.94499999 -0.49747393 -0.78533143 0.36847538 nan
0.32989973 0.20664048 -0.94800001 -0.40862462 -0.79128522 0.45485565 nan
0.33171237 0.20664048 -0.94800001 -0.3694351 -0.78551668 0.49646878 nan
0.333525 0.20664048 -0.94800001 -0.34942836 -0.77334672 0.52899396 nan
0.33427644 0.20598656 -0.94499999 -0.30305952 -0.77154142 0.55935568 nan
0.33715028 0.20664048 -0.94800001 -0.23777677 -0.7663067 0.59685528 nan
0.33896288 0.20664048 -0.94800001 -0.19882318 -0.74275768 0.63935941 nan
0.34077552 0.20664048 -0.94800001 -0.17537074 -0.72580814 0.66516745 nan
0.34258816 0.20664048 -0.94800001 -0.12766831 -0.7112835 0.69121385 nan
0.34331092 0.20598656 -0.94499999 -0.092817985 -0.71092874 0.69711196 nan
0.34511781 0.20598656 -0.94499999 0.019858856 -0.73360544 0.67928541 nan
0.34802607 0.20664048 -0.94800001 0.15402555 -0.76676005 0.62318134 nan
0.34873161 0.20598656 -0.94499999 0.18479374 -0.80566317 0.56281269 nan
0.35053852 0.20598656 -0.94499999 0.22510888 -0.83350116 0.50458062 nan
0.35234541 0.20598656 -0.94499999 0.30354396 -0.82939458 0.46900502 nan
0.35415232 0.20598656 -0.94499999 0.41463625 -0.792974 0.44639575 nan
0.35784259 0.20707643 -0.94999999 0.58636934 -0.68254209 0.4362421 nan
0.35965905 0.20707643 -0.94999999 0.67701006 -0.60271019 0.4223718 nan
0.36071452 0.20664048 -0.94800001 0.69996274 -0.5875181 0.40604776 nan
0.36137992 0.20598656 -0.94499999 0.71570897 -0.5639509 0.41197094 nan
0.36318681 0.20598656 -0.94499999 0.72570437 -0.52637911 0.44303304 nan
0.36692491 0.20707643 -0.94999999 0.74192584 -0.46208003 0.48582709 nan
0.32152489 0.21001336 -0.972 -0.81377381 -0.56961662 0.11536452 nan
0.3213872 0.20871699 -0.96600002 -0.79742104 -0.5957188 0.096119449 nan
0.32223043 0.20806879 -0.963 -0.75125891 -0.65019339 0.11339515 nan
0.32339871 0.20763667 -0.96100003 -0.6905899 -0.70763737 0.14944911 nan
0.32591307 0.20806879 -0.963 -0.63189214 -0.75394243 0.17967501 nan
0.32605264 0.20698848 -0.958 -0.57594514 -0.79137576 0.20496717 nan
0.32788441 0.20698848 -0.958 -0.56065327 -0.79967624 0.21490866 nan
0.32868364 0.20634028 -0.95499998 -0.55323303 -0.79851383 0.23729494 nan
0.33050966 0.20634028 -0.95499998 -0.48545775 -0.8236118 0.29324758 nan
0.33233568 0.20634028 -0.95499998 -0.41128552 -0.83537441 0.36468306 nan
0.3341617 0.20634028 -0.95499998 -0.37019652 -0.83345872 0.41024536 nan
0.33528408 0.20590816 -0.95300001 -0.34305352 -0.82680362 0.4457688 nan
0.33710629 0.20590816 -0.95300001 -0.29328072 -0.82565606 0.48195282 nan
0.33892849 0.20590816 -0.95300001 -0.24298643 -0.82259971 0.51408869 nan
0.34075066 0.20590816 -0.95300001 -0.21833047 -0.81024945 0.54390025 nan
0.34257287 0.20590816 -0.95300001 -0.18216923 -0.79972297 0.57206434 nan
0.34258816 0.20482785 -0.94800001 -0.11606225 -0.79145211 0.60011089 nan
0.34440079 0.20482785 -0.94800001 -0.019965231 -0.79668272 0.60406786 nan
0.34621343 0.20482785 -0.94800001 0.12562698 -0.8087756 0.57454336 nan
0.34802607 0.20482785 -0.94800001 0.22901234 -0.81461352 0.53287727 nan
0.3498387 0.20482785 -0.94800001 0.25328946 -0.83265036 0.49248144 nan
0.35165134 0.20482785 -0.94800001 0.28451562 -0.84524822 0.45233417 nan
0.35346398 0.20482785 -0.94800001 0.34676287 -0.83434564 0.42851233 nan
0.35527661 0.20482785 -0.94800001 0.4437353 -0.79245687 0.41846281 nan
0.35784259 0.20525996 -0.94999999 0.59878266 -0.68257493 0.41898784 nan
0.35965905 0.20525996 -0.94999999 0.68573231 -0.59966815 0.41251612 nan
0.36147553 0.20525996 -0.94999999 0.70735836 -0.56784248 0.4209502 nan
0.36252716 0.20482785 -0.94800001 0.71906567 -0.52582532 0.4543702 nan
0.36318681 0.20417966 -0.94499999 0.7278775 -0.46941739 0.49984163 nan
0.32423809 0.20751238 -0.96899998 -0.73354191 -0.66668516 0.13208701 nan
0.32609087 0.20751238 -0.96899998 -0.66414702 -0.73109424 0.1562368 nan
0.32591307 0.20622748 -0.963 -0.59922194 -0.78050834 0.17815652 nan
0.32775438 0.20622748 -0.963 -0.53895193 -0.8190127 0.19684763 nan
0.32891119 0.20579918 -0.96100003 -0.53145874 -0.82576233 0.18886068 nan
0.32868364 0.20451427 -0.95499998 -0.52883661 -0.82641691 0.19330491 nan
0.33050966 0.20451427 -0.95499998 -0.46539041 -0.85551339 0.22695482 nan
0.33233568 0.20451427 -0.95499998 -0.39545241 -0.87706238 0.27272505 nan
0.3341617 0.20451427 -0.95499998 -0.3486636 -0.88699019 0.30279067 nan
0.33598772 0.20451427 -0.95499998 -0.3196364 -0.88696438 0.33335689 nan
0.33710629 0.20408596 -0.95300001 -0.2699905 -0.89156258 0.36362261 nan
0.33892849 0.20408596 -0.95300001 -0.22658433 -0.89376843 0.38708845 nan
0.34075066 0.20408596 -0.95300001 -0.19881336 -0.8919577 0.40605992 nan
0.34257287 0.20408596 -0.95300001 -0.16138896 -0.89222467 0.42176852 nan
0.34439507 0.20408596 -0.95300001 -0.075400651 -0.88935751 0.45095232 nan
0.34440079 0.20301521 -0.94800001 0.045691185 -0.88621289 0.46101943 nan
0.34694383 0.20344351 -0.94999999 0.18244603 -0.86438972 0.46855512 nan
0.34876031 0.20344351 -0.94999999 0.26994497 -0.84593982 0.45990834 nan
0.35057676 0.20344351 -0.94999999 0.29362333 -0.84697974 0.44318238 nan
0.35239321 0.20344351 -0.94999999 0.32575777 -0.84651375 0.42106575 nan
0.35420969 0.20344351 -0.94999999 0.37614766 -0.83172679 0.40834221 nan
0.35602614 0.20344351 -0.94999999 0.46780416 -0.78238356 0.41113883 nan
0.35897264 0.20408596 -0.95300001 0.61526465 -0.66803902 0.41853708 nan
0.36079484 0.20408596 -0.95300001 0.69517696 -0.5703401 0.43754005 nan
0.36147553 0.20344351 -0.94999999 0.7159307 -0.51084113 0.4759039 nan
0.36252716 0.20301521 -0.94800001 0.72596085 -0.44799984 0.52180165 nan
0.3643398 0.20301521 -0.94800001 0.72603112 -0.37717688 0.57499248 nan
