# .PCD v0.7 - Point Cloud Data file format
VERSION 0.7
FIELDS x y z normal_x normal_y normal_z curvature
SIZE 4 4 4 4 4 4 4
TYPE F F F F F F F
COUNT 1 1 1 1 1 1 1
WIDTH 663
HEIGHT 1
VIEWPOINT 0 0 0 1 0 0 0
POINTS 663
DATA ascii
-0.13899933 0.21562718 -0.93199998 0.041478895 0.62826169 0.77689558 nan
-0.13692284 0.21516445 -0.93000001 0.0020230494 0.61405361 0.78926176 nan
-0.13514462 0.21516445 -0.93000001 -0.029451801 0.59622461 0.80227733 nan
-0.13336641 0.21516445 -0.93000001 -0.0035732666 0.58194268 0.81322199 nan
-0.13158818 0.21516445 -0.93000001 0.0060323379 0.56518275 0.82494372 nan
-0.12980996 0.21516445 -0.93000001 0.039593689 0.56129324 0.82666934 nan
-0.12803175 0.21516445 -0.93000001 0.10428826 0.55342543 0.82634389 nan
-0.12625353 0.21516445 -0.93000001 0.1585951 0.54064018 0.82616931 nan
-0.12447531 0.21516445 -0.93000001 0.22854455 0.52105981 0.82235283 nan
-0.12269709 0.21516445 -0.93000001 0.36038777 0.48809752 0.79490972 nan
-0.12117891 0.21562718 -0.93199998 0.44999823 0.3949632 0.80094051 nan
-0.11939687 0.21562718 -0.93199998 0.55354577 0.26722682 0.78878194 nan
-0.11799341 0.21632126 -0.935 0.86554408 0.092110373 0.49228954 nan
-0.11620563 0.21632126 -0.935 0.95829493 -0.013083888 0.28548157 nan
-0.1146626 0.21678397 -0.93699998 0.96592587 -0.023696501 0.25773153 nan
-0.11323237 0.21747805 -0.94 0.96627045 -0.037169155 0.25483319 nan
-0.11107939 0.21678397 -0.93699998 0.96673149 -0.045316834 0.25174734 nan
-0.10928778 0.21678397 -0.93699998 0.96579111 -0.038495958 0.256448 nan
-0.30042717 0.20719115 -0.903 -0.59965509 0.57153744 0.5601418 nan
-0.29936215 0.20765004 -0.90499997 -0.59760112 0.57275933 0.56108779 nan
-0.29927611 0.20879729 -0.91000003 -0.57997286 0.58715552 0.56469446 nan
-0.29917094 0.20994453 -0.91500002 -0.47709009 0.66195571 0.57810009 nan
-0.29677132 0.20948562 -0.91299999 -0.32236418 0.72861665 0.60431713 nan
-0.29567188 0.20994453 -0.91500002 -0.21413335 0.74823713 0.62792355 nan
-0.29392233 0.20994453 -0.91500002 -0.18684462 0.72732955 0.66036415 nan
-0.29217279 0.20994453 -0.91500002 -0.2215369 0.67921638 0.69970453 nan
-0.29042327 0.20994453 -0.91500002 -0.029411057 0.67591232 0.73639506 nan
-0.2893047 0.21040341 -0.917 0.2460323 0.66741216 0.70287198 nan
-0.28849208 0.21109177 -0.92000002 0.22704674 0.63325965 0.7398864 nan
-0.28673297 0.21109177 -0.92000002 0.24392335 0.63754147 0.73078185 nan
-0.28497389 0.21109177 -0.92000002 0.2365538 0.64175719 0.72951353 nan
-0.28383046 0.21155065 -0.92199999 0.18240826 0.64089924 0.74563748 nan
-0.28206754 0.21155065 -0.92199999 0.1514474 0.64211839 0.75149691 nan
-0.28030461 0.21155065 -0.92199999 0.14346558 0.64330626 0.752047 nan
-0.27854168 0.21155065 -0.92199999 0.12682065 0.64214003 0.75602412 nan
-0.27767935 0.212239 -0.92500001 0.088567376 0.63369024 0.76850015 nan
-0.27591071 0.212239 -0.92500001 0.05167963 0.6262396 0.77791595 nan
-0.27414206 0.212239 -0.92500001 0.04627686 0.6236828 0.78030646 nan
-0.27237338 0.212239 -0.92500001 0.044600677 0.62153018 0.78211957 nan
-0.27060473 0.212239 -0.92500001 -0.03078348 0.60735244 0.79383588 nan
-0.26883608 0.212239 -0.92500001 -0.0911479 0.58514369 0.80579084 nan
-0.2670674 0.212239 -0.92500001 -0.11604352 0.56829649 0.81459987 nan
-0.26529875 0.212239 -0.92500001 -0.12339676 0.55445987 0.82301128 nan
-0.26353011 0.212239 -0.92500001 -0.10977387 0.55198622 0.82659596 nan
-0.26176143 0.212239 -0.92500001 -0.10570516 0.54295987 0.8330791 nan
-0.25999278 0.212239 -0.92500001 -0.089157619 0.545044 0.83365339 nan
-0.25738662 0.21155065 -0.92199999 -0.056960065 0.54952288 0.83353472 nan
-0.2556237 0.21155065 -0.92199999 -0.045213874 0.55373865 0.83146209 nan
-0.2538608 0.21155065 -0.92199999 -0.021854362 0.55720496 0.83008742 nan
-0.25209787 0.21155065 -0.92199999 0.039208136 0.57258803 0.81890517 nan
-0.25114948 0.212239 -0.92500001 0.071927786 0.58876175 0.80509996 nan
-0.24857202 0.21155065 -0.92199999 0.099077173 0.60832369 0.78748077 nan
-0.24761216 0.212239 -0.92500001 0.10080664 0.62196618 0.7765283 nan
-0.24584351 0.212239 -0.92500001 0.084690638 0.62819117 0.77343601 nan
-0.24407485 0.212239 -0.92500001 0.08683636 0.63899738 0.7642917 nan
-0.2423062 0.212239 -0.92500001 0.093153112 0.64623117 0.7574349 nan
-0.24053754 0.212239 -0.92500001 0.092538841 0.65109938 0.75333011 nan
-0.23876888 0.212239 -0.92500001 0.085084029 0.65294832 0.7526083 nan
-0.23700023 0.212239 -0.92500001 0.07261955 0.65193284 0.75479126 nan
-0.23523156 0.212239 -0.92500001 0.057257179 0.64474553 0.76224995 nan
-0.2334629 0.212239 -0.92500001 0.06695237 0.63947588 0.76589018 nan
-0.23169425 0.212239 -0.92500001 0.08557573 0.63722342 0.76591331 nan
-0.22992559 0.212239 -0.92500001 0.096668988 0.63688421 0.76487482 nan
-0.22815692 0.212239 -0.92500001 0.10276855 0.63347876 0.76690495 nan
-0.22687775 0.21269789 -0.92699999 0.094087064 0.62918562 0.77153945 nan
-0.22510527 0.21269789 -0.92699999 0.093081951 0.6224367 0.7771154 nan
-0.22285095 0.212239 -0.92500001 0.10110904 0.61795324 0.77968627 nan
-0.2215603 0.21269789 -0.92699999 0.082779124 0.61186647 0.78661746 nan
-0.21931364 0.212239 -0.92500001 0.041083373 0.60957187 0.79166555 nan
-0.21801534 0.21269789 -0.92699999 0.014759975 0.60793948 0.79384613 nan
-0.21577632 0.212239 -0.92500001 0.0089191701 0.6130091 0.79002559 nan
-0.21447037 0.21269789 -0.92699999 -0.002136501 0.61646885 0.7873764 nan
-0.21269789 0.21269789 -0.92699999 -0.021994062 0.61598355 0.78745198 nan
-0.21092542 0.21269789 -0.92699999 -0.034438219 0.61814034 0.78531307 nan
-0.20870169 0.212239 -0.92500001 -0.05515847 0.62161237 0.78138053 nan
-0.20693302 0.212239 -0.92500001 -0.063129097 0.62666267 0.77672946 nan
-0.20560797 0.21269789 -0.92699999 -0.041791949 0.63657379 0.77008271 nan
-0.20383549 0.21269789 -0.92699999 -0.019047318 0.64614511 0.76297688 nan
-0.20206299 0.21269789 -0.92699999 0.0017254718 0.6525107 0.75777745 nan
-0.20029052 0.21269789 -0.92699999 0.0086448751 0.65557027 0.75508481 nan
-0.19808973 0.212239 -0.92500001 -0.010021512 0.65198892 0.75816232 nan
-0.19632109 0.212239 -0.92500001 -0.022107337 0.64498764 0.76387316 nan
-0.19497307 0.21269789 -0.92699999 0.005468979 0.64223701 0.76648664 nan
-0.19320059 0.21269789 -0.92699999 0.012519345 0.64201975 0.76658589 nan
-0.19101511 0.212239 -0.92500001 0.0108251 0.63589567 0.77169907 nan
-0.18924645 0.212239 -0.92500001 0.005361686 0.63362604 0.77362084 nan
-0.18747778 0.212239 -0.92500001 -0.030147716 0.62723792 0.77824396 nan
-0.18570913 0.212239 -0.92500001 -0.028427619 0.62485158 0.78022593 nan
-0.18433817 0.21269789 -0.92699999 -0.0070875483 0.62453431 0.78096521 nan
-0.18217181 0.212239 -0.92500001 -0.014281028 0.62475508 0.78069019 nan
-0.18040316 0.212239 -0.92500001 0.0071175783 0.62779123 0.7783491 nan
-0.17902073 0.21269789 -0.92699999 0.02651366 0.63730264 0.77015734 nan
-0.17686583 0.212239 -0.92500001 -0.0018271746 0.6424973 0.76628584 nan
-0.17509718 0.212239 -0.92500001 0.010304446 0.64856976 0.76108545 nan
-0.17370328 0.21269789 -0.92699999 0.037664529 0.65786147 0.75219661 nan
-0.17155986 0.212239 -0.92500001 0.033994097 0.66146463 0.74920553 nan
-0.17015831 0.21269789 -0.92699999 0.031984884 0.66510928 0.74606079 nan
-0.16802254 0.212239 -0.92500001 0.030023936 0.668688 0.74293655 nan
-0.16661336 0.21269789 -0.92699999 0.029977808 0.67085391 0.74098343 nan
-0.16484086 0.21269789 -0.92699999 0.0267382 0.67130232 0.74070114 nan
-0.16306838 0.21269789 -0.92699999 0.001757432 0.66786075 0.74428415 nan
-0.16129591 0.21269789 -0.92699999 -0.0049710223 0.66355568 0.74811035 nan
-0.15952341 0.21269789 -0.92699999 0.025381409 0.66593373 0.74557894 nan
-0.15775093 0.21269789 -0.92699999 0.025302054 0.66738176 0.74428582 nan
-0.15597846 0.21269789 -0.92699999 0.0084834527 0.66611588 0.74580002 nan
-0.15387328 0.212239 -0.92500001 0.045455158 0.66993797 0.74102426 nan
-0.15210462 0.212239 -0.92500001 0.080293126 0.67482555 0.73359621 nan
-0.15033597 0.212239 -0.92500001 0.06806159 0.67790794 0.73198938 nan
-0.14888853 0.21269789 -0.92699999 0.065965749 0.68126309 0.72906047 nan
-0.14711604 0.21269789 -0.92699999 0.081132852 0.6794703 0.72920328 nan
-0.14534356 0.21269789 -0.92699999 0.079257555 0.68071038 0.72825247 nan
-0.14403571 0.21338624 -0.93000001 0.069540478 0.68031895 0.72960955 nan
-0.1422575 0.21338624 -0.93000001 0.06211298 0.67349631 0.73657632 nan
-0.14047928 0.21338624 -0.93000001 0.051293992 0.66329646 0.74659687 nan
-0.13870105 0.21338624 -0.93000001 0.060396753 0.65811652 0.75048971 nan
-0.13692284 0.21338624 -0.93000001 0.028105613 0.64941758 0.75991255 nan
-0.13470866 0.21269789 -0.92699999 0.00037450789 0.63770795 0.7702781 nan
-0.13293618 0.21269789 -0.92699999 0.025531933 0.62613344 0.77929777 nan
-0.13158818 0.21338624 -0.93000001 0.024018262 0.61400443 0.78893709 nan
-0.12939122 0.21269789 -0.92699999 0.044594429 0.6082077 0.79252428 nan
-0.12761873 0.21269789 -0.92699999 0.11062475 0.60442472 0.78894418 nan
-0.12584625 0.21269789 -0.92699999 0.16710989 0.59306931 0.7876187 nan
-0.12447531 0.21338624 -0.93000001 0.22881494 0.57585931 0.78487563 nan
-0.12269709 0.21338624 -0.93000001 0.39893961 0.53982842 0.74123716 nan
-0.12091887 0.21338624 -0.93000001 0.54602426 0.41847247 0.72576737 nan
-0.11939687 0.21384513 -0.93199998 0.65041637 0.27719489 0.70719266 nan
-0.11761482 0.21384513 -0.93199998 0.89670587 0.084955528 0.43439746 nan
-0.11620563 0.21453348 -0.935 0.96357971 -0.022556594 0.26646793 nan
-0.1146626 0.21499236 -0.93699998 0.96659327 -0.022202805 0.25535184 nan
-0.11323237 0.21568072 -0.94 0.96707678 -0.029567363 0.25276133 nan
-0.11107939 0.21499236 -0.93699998 0.96667331 -0.035267793 0.25357223 nan
-0.10928778 0.21499236 -0.93699998 0.96471459 -0.030973032 0.26146993 nan
-0.30215377 0.20546456 -0.903 -0.63638902 0.51668209 0.57275522 nan
-0.30042717 0.20546456 -0.903 -0.63641977 0.51277918 0.57621807 nan
-0.30200845 0.20773992 -0.91299999 -0.63979101 0.5076108 0.57706052 nan
-0.30026272 0.20773992 -0.91299999 -0.62440276 0.52077949 0.58215964 nan
-0.29917094 0.20819499 -0.91500002 -0.50179911 0.61346769 0.60979927 nan
-0.29742143 0.20819499 -0.91500002 -0.2870951 0.70268571 0.65100628 nan
-0.29567188 0.20819499 -0.91500002 -0.14345494 0.71706969 0.68207908 nan
-0.29327989 0.20773992 -0.91299999 -0.10173618 0.68083256 0.72533911 nan
-0.29153416 0.20773992 -0.91299999 -0.13593274 0.61572337 0.77614874 nan
-0.28978845 0.20773992 -0.91299999 0.030849369 0.56333512 0.82565242 nan
-0.2893047 0.20865005 -0.917 0.23704676 0.59614563 0.76708496 nan
-0.28755134 0.20865005 -0.917 0.20821413 0.61649173 0.75933182 nan
-0.28579798 0.20865005 -0.917 0.24026671 0.62432563 0.74329627 nan
-0.28497389 0.20933267 -0.92000002 0.2377767 0.63069141 0.73870879 nan
-0.28321478 0.20933267 -0.92000002 0.18624477 0.62989163 0.75402212 nan
-0.28206754 0.20978773 -0.92199999 0.15581502 0.62662363 0.76358664 nan
-0.28030461 0.20978773 -0.92199999 0.14738029 0.62887084 0.76341373 nan
-0.27854168 0.20978773 -0.92199999 0.13345349 0.63073552 0.7644363 nan
-0.27677879 0.20978773 -0.92199999 0.097874157 0.62427539 0.77504897 nan
-0.27501586 0.20978773 -0.92199999 0.060015805 0.61962551 0.78259975 nan
-0.27325293 0.20978773 -0.92199999 0.054706678 0.61511767 0.78653508 nan
-0.27149001 0.20978773 -0.92199999 0.053180009 0.61089885 0.78992045 nan
-0.26972708 0.20978773 -0.92199999 -0.014729118 0.59513688 0.80348933 nan
-0.26883608 0.21047035 -0.92500001 -0.068151362 0.56990778 0.81887758 nan
-0.26620123 0.20978773 -0.92199999 -0.094096698 0.5500229 0.82983172 nan
-0.26443833 0.20978773 -0.92199999 -0.10483048 0.53680956 0.83716559 nan
-0.2626754 0.20978773 -0.92199999 -0.091064297 0.52772486 0.84451979 nan
-0.26091248 0.20978773 -0.92199999 -0.090735458 0.51314032 0.8534953 nan
-0.25914955 0.20978773 -0.92199999 -0.081931166 0.5045051 0.85951257 nan
-0.25738662 0.20978773 -0.92199999 -0.054284934 0.50104743 0.86371565 nan
-0.25506923 0.20933267 -0.92000002 -0.048093315 0.50201267 0.86352211 nan
-0.25331011 0.20933267 -0.92000002 -0.031729259 0.50030404 0.86526823 nan
-0.25209787 0.20978773 -0.92199999 0.018614899 0.51866418 0.85477537 nan
-0.25033495 0.20978773 -0.92199999 0.04304726 0.54180825 0.8393991 nan
-0.24857202 0.20978773 -0.92199999 0.068530671 0.56348497 0.8232789 nan
-0.2468091 0.20978773 -0.92199999 0.078887656 0.58243746 0.80903858 nan
-0.24504618 0.20978773 -0.92199999 0.06597615 0.59207994 0.80317402 nan
-0.24328326 0.20978773 -0.92199999 0.068631142 0.60460961 0.79355967 nan
-0.2423062 0.21047035 -0.92500001 0.07860776 0.61908662 0.78137869 nan
-0.2397574 0.20978773 -0.92199999 0.083442017 0.62687922 0.77463526 nan
-0.23799449 0.20978773 -0.92199999 0.081027016 0.63120461 0.77137238 nan
-0.23623157 0.20978773 -0.92199999 0.074953273 0.63516694 0.76872945 nan
-0.23446864 0.20978773 -0.92199999 0.066243686 0.63077259 0.77313501 nan
-0.2334629 0.21047035 -0.92500001 0.075962961 0.62779206 0.77466547 nan
-0.23169425 0.21047035 -0.92500001 0.089246146 0.62676483 0.77408081 nan
-0.22992559 0.21047035 -0.92500001 0.094710983 0.62789452 0.77251434 nan
-0.22815692 0.21047035 -0.92500001 0.099840648 0.63080376 0.76949233 nan
-0.22638828 0.21047035 -0.92500001 0.095742859 0.63315278 0.76808256 nan
-0.22461961 0.21047035 -0.92500001 0.099961355 0.62956309 0.77049202 nan
-0.22285095 0.21047035 -0.92500001 0.10716636 0.62976032 0.76936167 nan
-0.2210823 0.21047035 -0.92500001 0.088680565 0.62673515 0.7741698 nan
-0.21931364 0.21047035 -0.92500001 0.047759458 0.62369603 0.78020656 nan
-0.21754497 0.21047035 -0.92500001 0.012747965 0.62030238 0.78425926 nan
-0.21577632 0.21047035 -0.92500001 -0.0020220198 0.62136835 0.78351605 nan
-0.21400766 0.21047035 -0.92500001 -0.0074912659 0.6234054 0.78186285 nan
-0.21269789 0.21092542 -0.92699999 -0.020191781 0.6200549 0.78429854 nan
-0.21047035 0.21047035 -0.92500001 -0.036452875 0.61712188 0.78602278 nan
-0.20870169 0.21047035 -0.92500001 -0.062942117 0.61525828 0.78580892 nan
-0.20693302 0.21047035 -0.92500001 -0.076665379 0.61510962 0.7847054 nan
-0.20516437 0.21047035 -0.92500001 -0.060388356 0.62211901 0.78059036 nan
-0.20339571 0.21047035 -0.92500001 -0.03709593 0.63153738 0.77445757 nan
-0.20162705 0.21047035 -0.92500001 -0.012231215 0.63886142 0.76922464 nan
-0.1998584 0.21047035 -0.92500001 0.007172043 0.64344931 0.76545519 nan
-0.19744729 0.20978773 -0.92199999 0.0020556953 0.64122987 0.76734614 nan
-0.19632109 0.21047035 -0.92500001 -0.0049759499 0.63455224 0.77286398 nan
-0.19455242 0.21047035 -0.92500001 0.012824425 0.63199228 0.77486849 nan
-0.19278376 0.21047035 -0.92500001 0.020046737 0.6316942 0.77495837 nan
-0.19101511 0.21047035 -0.92500001 0.020131778 0.62540132 0.78004348 nan
-0.18924645 0.21047035 -0.92500001 0.010858054 0.62451845 0.78093463 nan
-0.18747778 0.21047035 -0.92500001 -0.019905914 0.62053084 0.78392935 nan
-0.18570913 0.21047035 -0.92500001 -0.01811095 0.6180625 0.78592032 nan
-0.18394047 0.21047035 -0.92500001 -2.00755e-05 0.6190477 0.7853533 nan
-0.18217181 0.21047035 -0.92500001 -0.010989798 0.61895019 0.78535336 nan
-0.18040316 0.21047035 -0.92500001 -0.0038273444 0.61882353 0.78552067 nan
-0.17863449 0.21047035 -0.92500001 0.0015611359 0.62930423 0.77715755 nan
-0.17686583 0.21047035 -0.92500001 -0.021354076 0.63488668 0.77231008 nan
-0.17509718 0.21047035 -0.92500001 -0.0089808954 0.64130014 0.76723754 nan
-0.17332852 0.21047035 -0.92500001 0.020679111 0.65134883 0.75849664 nan
-0.17155986 0.21047035 -0.92500001 0.024163581 0.65398568 0.75612098 nan
-0.16979121 0.21047035 -0.92500001 0.022334484 0.65458137 0.75566155 nan
-0.16802254 0.21047035 -0.92500001 0.020415178 0.65832829 0.75245404 nan
-0.16625388 0.21047035 -0.92500001 0.020412199 0.66061902 0.75044376 nan
-0.16448523 0.21047035 -0.92500001 0.022193918 0.66146022 0.74965191 nan
-0.16271657 0.21047035 -0.92500001 0.010295032 0.66050506 0.75075108 nan
-0.1609479 0.21047035 -0.92500001 0.0034958357 0.65606117 0.75469965 nan
-0.15917926 0.21047035 -0.92500001 0.025830887 0.6577338 0.75280744 nan
-0.15741059 0.21047035 -0.92500001 0.029304411 0.6579349 0.75250435 nan
-0.15564193 0.21047035 -0.92500001 0.012159413 0.65512979 0.75541842 nan
-0.15387328 0.21047035 -0.92500001 0.043091759 0.65867841 0.75118959 nan
-0.15210462 0.21047035 -0.92500001 0.075355336 0.66382629 0.74408084 nan
-0.15033597 0.21047035 -0.92500001 0.066438846 0.66570491 0.7432515 nan
-0.1485673 0.21047035 -0.92500001 0.068041444 0.66641766 0.7424674 nan
-0.14679864 0.21047035 -0.92500001 0.077709809 0.67039269 0.73792601 nan
-0.14502999 0.21047035 -0.92500001 0.070383951 0.67449981 0.7349124 nan
-0.14357108 0.21092542 -0.92699999 0.072002098 0.67663229 0.73279226 nan
-0.1417986 0.21092542 -0.92699999 0.076079078 0.67225182 0.73640299 nan
-0.14002611 0.21092542 -0.92699999 0.061367325 0.66724628 0.74230474 nan
-0.13825363 0.21092542 -0.92699999 0.066774204 0.6642862 0.74448979 nan
-0.13648115 0.21092542 -0.92699999 0.037834074 0.66230917 0.74827468 nan
-0.13470866 0.21092542 -0.92699999 0.019374236 0.6542688 0.75601387 nan
-0.13293618 0.21092542 -0.92699999 0.045847576 0.64823353 0.76006001 nan
-0.1311637 0.21092542 -0.92699999 0.040870056 0.64209259 0.76553696 nan
-0.12939122 0.21092542 -0.92699999 0.057406839 0.63484788 0.77050155 nan
-0.12761873 0.21092542 -0.92699999 0.12153081 0.6282444 0.76846552 nan
-0.12584625 0.21092542 -0.92699999 0.18538788 0.61590046 0.76570094 nan
-0.12407377 0.21092542 -0.92699999 0.25456691 0.59621072 0.76139909 nan
-0.12230129 0.21092542 -0.92699999 0.4690468 0.54294485 0.69656724 nan
-0.12091887 0.21160802 -0.93000001 0.64649016 0.40189701 0.64848238 nan
-0.11914065 0.21160802 -0.93000001 0.74374014 0.25168782 0.61927682 nan
-0.11761482 0.21206309 -0.93199998 0.9231981 0.071208954 0.37766969 nan
-0.11583278 0.21206309 -0.93199998 0.96554661 0.017603105 0.25963414 nan
-0.1146626 0.21320076 -0.93699998 0.96435088 0.019033577 0.26394138 nan
-0.11347329 0.21433844 -0.94199997 0.96510869 0.015176295 0.26140949 nan
-0.11143503 0.21388337 -0.94 0.96443415 0.012591801 0.26402318 nan
-0.10963769 0.21388337 -0.94 0.96081471 0.017687274 0.2766265 nan
-0.30375415 0.2059942 -0.91299999 -0.63895619 0.50426352 0.5809074 nan
-0.30200845 0.2059942 -0.91299999 -0.64819425 0.49078944 0.58221114 nan
-0.30026272 0.2059942 -0.91299999 -0.63801974 0.49661693 0.58847469 nan
-0.29917094 0.20644546 -0.91500002 -0.49670637 0.60069829 0.62645388 nan
-0.29742143 0.20644546 -0.91500002 -0.21194243 0.71047288 0.67105037 nan
-0.29502559 0.2059942 -0.91299999 -0.026840743 0.71938759 0.69409013 nan
-0.29327989 0.2059942 -0.91299999 0.027890313 0.67594445 0.73642457 nan
-0.29153416 0.2059942 -0.91299999 -0.0010129694 0.60312474 0.79764622 nan
-0.28978845 0.2059942 -0.91299999 0.10917377 0.51869029 0.84796309 nan
-0.28867373 0.20644546 -0.91500002 0.21425632 0.55569631 0.80330306 nan
-0.28755134 0.20689669 -0.917 0.18799171 0.58243251 0.79084235 nan
-0.28517467 0.20644546 -0.91500002 0.22992966 0.59969115 0.76648736 nan
-0.28497389 0.20757358 -0.92000002 0.23517039 0.61300015 0.75427163 nan
-0.28321478 0.20757358 -0.92000002 0.19578454 0.61237115 0.76594394 nan
-0.2814557 0.20757358 -0.92000002 0.15782492 0.61184669 0.77507102 nan
-0.27969658 0.20757358 -0.92000002 0.13872823 0.616723 0.77485955 nan
-0.2779375 0.20757358 -0.92000002 0.13366196 0.62217933 0.77138007 nan
-0.27677879 0.20802481 -0.92199999 0.10112531 0.61780763 0.77979958 nan
-0.27501586 0.20802481 -0.92199999 0.062680185 0.61410093 0.78673458 nan
-0.27325293 0.20802481 -0.92199999 0.063440859 0.60711348 0.79207861 nan
-0.27149001 0.20802481 -0.92199999 0.067839108 0.6022889 0.79539043 nan
-0.26972708 0.20802481 -0.92199999 0.011869065 0.58740669 0.80920482 nan
-0.26796415 0.20802481 -0.92199999 -0.038738221 0.56492943 0.82422936 nan
-0.26620123 0.20802481 -0.92199999 -0.076010011 0.54858679 0.83263141 nan
-0.26443833 0.20802481 -0.92199999 -0.090698928 0.53329176 0.84105504 nan
-0.2626754 0.20802481 -0.92199999 -0.072465941 0.52448797 0.84832841 nan
-0.26091248 0.20802481 -0.92199999 -0.071570039 0.51211834 0.85592788 nan
-0.25858742 0.20757358 -0.92000002 -0.066288389 0.50391722 0.86120462 nan
-0.25682831 0.20757358 -0.92000002 -0.048313454 0.50002807 0.8646605 nan
-0.25506923 0.20757358 -0.92000002 -0.042075764 0.50096792 0.86444241 nan
-0.25331011 0.20757358 -0.92000002 -0.036170267 0.49498898 0.86814606 nan
-0.25155103 0.20757358 -0.92000002 -0.010823557 0.50928754 0.86052835 nan
-0.24979192 0.20757358 -0.92000002 0.010109067 0.53020418 0.84780967 nan
-0.24803282 0.20757358 -0.92000002 0.040782768 0.5485155 0.83514529 nan
-0.24627373 0.20757358 -0.92000002 0.056116391 0.5677402 0.82129288 nan
-0.24451463 0.20757358 -0.92000002 0.047358237 0.57816714 0.81454277 nan
-0.24275553 0.20757358 -0.92000002 0.042696513 0.58852243 0.80735278 nan
-0.24099644 0.20757358 -0.92000002 0.057217471 0.60436618 0.79464936 nan
-0.23923734 0.20757358 -0.92000002 0.073831566 0.61364341 0.78612387 nan
-0.23747824 0.20757358 -0.92000002 0.071448624 0.6182301 0.78274298 nan
-0.23571914 0.20757358 -0.92000002 0.074738532 0.62316799 0.77850872 nan
-0.23396005 0.20757358 -0.92000002 0.075002581 0.62120444 0.78005111 nan
-0.23220095 0.20757358 -0.92000002 0.080885991 0.61966401 0.78068817 nan
-0.23044184 0.20757358 -0.92000002 0.089949667 0.62308735 0.77696276 nan
-0.22917987 0.20802481 -0.92199999 0.091855094 0.62311745 0.7767157 nan
-0.22741696 0.20802481 -0.92199999 0.093030058 0.62780839 0.77278847 nan
-0.22638828 0.20870169 -0.92500001 0.096533746 0.62975973 0.77076834 nan
-0.22461961 0.20870169 -0.92500001 0.10047024 0.62801331 0.77168977 nan
-0.22285095 0.20870169 -0.92500001 0.10335755 0.63173038 0.76826686 nan
-0.2210823 0.20870169 -0.92500001 0.084270306 0.6332224 0.76936859 nan
-0.21931364 0.20870169 -0.92500001 0.039757729 0.63420272 0.77214396 nan
-0.21754497 0.20870169 -0.92500001 0.0090055354 0.63284147 0.77422899 nan
-0.21577632 0.20870169 -0.92500001 -0.001867193 0.6297996 0.77675539 nan
-0.21400766 0.20870169 -0.92500001 -0.0037521299 0.62861949 0.77770394 nan
-0.212239 0.20870169 -0.92500001 -0.016412694 0.62709546 0.77876943 nan
-0.21047035 0.20870169 -0.92500001 -0.036158491 0.62365913 0.78085965 nan
-0.20802481 0.20802481 -0.92199999 -0.062670901 0.61994469 0.78213865 nan
-0.20626189 0.20802481 -0.92199999 -0.076534204 0.61790788 0.78251672 nan
-0.20449896 0.20802481 -0.92199999 -0.064379036 0.6180715 0.7834813 nan
-0.20273605 0.20802481 -0.92199999 -0.041335803 0.62139952 0.78240258 nan
-0.20097312 0.20802481 -0.92199999 -0.012540416 0.6250186 0.78050917 nan
-0.1992102 0.20802481 -0.92199999 0.0073967348 0.62536246 0.78029931 nan
-0.19744729 0.20802481 -0.92199999 0.0057019242 0.62518668 0.7804544 nan
-0.19568436 0.20802481 -0.92199999 -0.0015181985 0.61616671 0.78761435 nan
-0.19455242 0.20870169 -0.92500001 0.016913539 0.61608094 0.78750122 nan
-0.19278376 0.20870169 -0.92500001 0.028316099 0.61127204 0.79091376 nan
-0.19101511 0.20870169 -0.92500001 0.024558535 0.60896707 0.79281521 nan
-0.18924645 0.20870169 -0.92500001 0.0074562267 0.60739809 0.79436266 nan
-0.18686974 0.20802481 -0.92199999 -0.024170216 0.60611242 0.79501158 nan
-0.18510683 0.20802481 -0.92199999 -0.022094527 0.6112414 0.79113579 nan
-0.1833439 0.20802481 -0.92199999 -0.0074108038 0.61755532 0.78649259 nan
-0.18158098 0.20802481 -0.92199999 -0.01464402 0.62332493 0.78182578 nan
-0.17981806 0.20802481 -0.92199999 -0.011082364 0.62556422 0.78009391 nan
-0.17805514 0.20802481 -0.92199999 -0.0091562876 0.63635159 0.77134478 nan
-0.17686583 0.20870169 -0.92500001 -0.028308267 0.63863993 0.76898485 nan
-0.17509718 0.20870169 -0.92500001 -0.015951985 0.64587718 0.76327467 nan
-0.17332852 0.20870169 -0.92500001 0.017073229 0.6546253 0.75576067 nan
-0.17155986 0.20870169 -0.92500001 0.027595988 0.65699643 0.75338846 nan
-0.16979121 0.20870169 -0.92500001 0.022435196 0.65494734 0.75534147 nan
-0.16802254 0.20870169 -0.92500001 0.017127272 0.65526146 0.75520802 nan
-0.16571468 0.20802481 -0.92199999 0.02419053 0.65493125 0.75530112 nan
-0.16448523 0.20870169 -0.92500001 0.026209442 0.65257651 0.75726938 nan
-0.16218884 0.20802481 -0.92199999 0.01055647 0.6513561 0.7586987 nan
-0.16042592 0.20802481 -0.92199999 0.0035502077 0.64830697 0.76137084 nan
-0.15917926 0.20870169 -0.92500001 0.026245611 0.6499995 0.75948119 nan
-0.15741059 0.20870169 -0.92500001 0.029689467 0.65181643 0.75779545 nan
-0.15564193 0.20870169 -0.92500001 0.0087578697 0.65032303 0.75960732 nan
-0.15387328 0.20870169 -0.92500001 0.034759708 0.65454805 0.75522083 nan
-0.15210462 0.20870169 -0.92500001 0.069205396 0.66008824 0.74799335 nan
-0.15033597 0.20870169 -0.92500001 0.06391795 0.66058004 0.74802971 nan
-0.1485673 0.20870169 -0.92500001 0.058559079 0.66105795 0.74804628 nan
-0.14679864 0.20870169 -0.92500001 0.06493286 0.66510528 0.74392116 nan
-0.14502999 0.20870169 -0.92500001 0.066214785 0.66885644 0.74043673 nan
-0.14357108 0.20915292 -0.92699999 0.076443635 0.67057604 0.73789173 nan
-0.1417986 0.20915292 -0.92699999 0.083948001 0.66685414 0.74044472 nan
-0.14002611 0.20915292 -0.92699999 0.06921228 0.66096652 0.74721688 nan
-0.13825363 0.20915292 -0.92699999 0.069890514 0.6553061 0.75212312 nan
-0.13648115 0.20915292 -0.92699999 0.045648973 0.65268898 0.75624937 nan
-0.13441804 0.20870169 -0.92500001 0.032217562 0.64291352 0.76526099 nan
-0.13264938 0.20870169 -0.92500001 0.05394423 0.63862246 0.76762712 nan
-0.1311637 0.20915292 -0.92699999 0.052521404 0.633219 0.7721886 nan
-0.12911206 0.20870169 -0.92500001 0.074936792 0.62652671 0.77578926 nan
-0.12761873 0.20915292 -0.92699999 0.14357412 0.6206854 0.77080226 nan
-0.12557474 0.20870169 -0.92500001 0.21161494 0.60780668 0.7653693 nan
-0.12407377 0.20915292 -0.92699999 0.28257143 0.58731723 0.7584272 nan
-0.12230129 0.20915292 -0.92699999 0.55346155 0.49022046 0.67332327 nan
-0.1205288 0.20915292 -0.92699999 0.74567795 0.33474368 0.57611728 nan
-0.11875632 0.20915292 -0.92699999 0.82111204 0.19431554 0.5366717 nan
-0.11736243 0.20982981 -0.93000001 0.93392038 0.054449897 0.35330987 nan
-0.11583278 0.21028104 -0.93199998 0.96119767 0.060037859 0.26924831 nan
-0.1146626 0.21140917 -0.93699998 0.960186 0.063437209 0.27206355 nan
-0.11347329 0.21253727 -0.94199997 0.96078163 0.064070106 0.26980305 nan
-0.11143503 0.21208604 -0.94 0.95973647 0.060957592 0.27420798 nan
-0.30382681 0.20312993 -0.90799999 -0.70204479 0.37437457 0.60578614 nan
-0.30275607 0.20357735 -0.91000003 -0.70749938 0.35906684 0.60869998 nan
-0.30200845 0.20424849 -0.91299999 -0.71894276 0.33710971 0.60784721 nan
-0.30026272 0.20424849 -0.91299999 -0.71499515 0.33103359 0.61579108 nan
-0.29917094 0.20469591 -0.91500002 -0.57452416 0.42509556 0.69943959 nan
-0.29677132 0.20424849 -0.91299999 -0.16551512 0.56305617 0.80967432 nan
-0.29502559 0.20424849 -0.91299999 0.13039057 0.51680821 0.8461132 nan
-0.29327989 0.20424849 -0.91299999 0.22313017 0.48878881 0.84338504 nan
-0.29153416 0.20424849 -0.91299999 0.19679238 0.43878275 0.87677968 nan
-0.28978845 0.20424849 -0.91299999 0.18492572 0.38494208 0.90422451 nan
-0.28804272 0.20424849 -0.91299999 0.16883612 0.44259095 0.88068587 nan
-0.28692418 0.20469591 -0.91500002 0.15745024 0.48425576 0.86064261 nan
-0.28517467 0.20469591 -0.91500002 0.21395719 0.52296019 0.82506669 nan
-0.28404462 0.20514333 -0.917 0.23848948 0.55356377 0.79792851 nan
-0.28229126 0.20514333 -0.917 0.20246592 0.56773937 0.79792207 nan
-0.2805379 0.20514333 -0.917 0.15353963 0.577564 0.80177647 nan
-0.27878454 0.20514333 -0.917 0.13273738 0.58760411 0.79818684 nan
-0.27703118 0.20514333 -0.917 0.13313603 0.59627086 0.79166651 nan
-0.27617839 0.20581447 -0.92000002 0.10620072 0.59963518 0.79319543 nan
-0.27441931 0.20581447 -0.92000002 0.07626459 0.59903246 0.79708457 nan
-0.2726602 0.20581447 -0.92000002 0.081267156 0.590828 0.80269414 nan
-0.27090111 0.20581447 -0.92000002 0.081804223 0.58634436 0.80592084 nan
-0.269142 0.20581447 -0.92000002 0.02812938 0.57163846 0.82002336 nan
-0.26796415 0.20626189 -0.92199999 -0.025783414 0.55289978 0.83284873 nan
-0.26562381 0.20581447 -0.92000002 -0.057619363 0.54324287 0.83759606 nan
-0.2638647 0.20581447 -0.92000002 -0.066695176 0.52608943 0.84780985 nan
-0.26210561 0.20581447 -0.92000002 -0.053309377 0.51951063 0.85279948 nan
-0.2603465 0.20581447 -0.92000002 -0.057945751 0.50979352 0.85834301 nan
-0.25858742 0.20581447 -0.92000002 -0.058313135 0.50450873 0.86143512 nan
-0.25599083 0.20514333 -0.917 -0.044089492 0.50400633 0.86257392 nan
-0.25423747 0.20514333 -0.917 -0.037848957 0.5049333 0.86232811 nan
-0.25248411 0.20514333 -0.917 -0.038125739 0.49949992 0.86547458 nan
-0.25073075 0.20514333 -0.917 -0.027531367 0.50775886 0.86105919 nan
-0.24897738 0.20514333 -0.917 -0.010623721 0.51926339 0.85454822 nan
-0.24722402 0.20514333 -0.917 0.014466291 0.5287466 0.84865648 nan
-0.24547066 0.20514333 -0.917 0.030702705 0.54684764 0.83666909 nan
-0.2437173 0.20514333 -0.917 0.028394014 0.55504858 0.83133316 nan
-0.24196394 0.20514333 -0.917 0.023931542 0.56629789 0.82385314 nan
-0.24021056 0.20514333 -0.917 0.039451748 0.5791803 0.81424433 nan
-0.2384572 0.20514333 -0.917 0.062786281 0.58890504 0.80575973 nan
-0.23670384 0.20514333 -0.917 0.066363811 0.59341598 0.80215544 nan
-0.23495048 0.20514333 -0.917 0.073833972 0.5981518 0.79797429 nan
-0.23319712 0.20514333 -0.917 0.077779055 0.59837997 0.79742825 nan
-0.23144376 0.20514333 -0.917 0.077350907 0.60143292 0.79516989 nan
-0.23044184 0.20581447 -0.92000002 0.085784204 0.6121648 0.78606313 nan
-0.22868274 0.20581447 -0.92000002 0.087326758 0.61518764 0.78352934 nan
-0.22692364 0.20581447 -0.92000002 0.088415578 0.62106478 0.77875614 nan
-0.22516455 0.20581447 -0.92000002 0.097988725 0.62154853 0.77722299 nan
-0.22340545 0.20581447 -0.92000002 0.09837009 0.61855108 0.77956265 nan
-0.22212818 0.20626189 -0.92199999 0.095619217 0.6230827 0.77628917 nan
-0.22036527 0.20626189 -0.92199999 0.074165843 0.62724823 0.77528 nan
-0.21860234 0.20626189 -0.92199999 0.034780722 0.62946349 0.77625126 nan
-0.21683942 0.20626189 -0.92199999 0.012846082 0.62809056 0.77803421 nan
-0.21507651 0.20626189 -0.92199999 0.0037006163 0.62520427 0.78045243 nan
-0.21331358 0.20626189 -0.92199999 -0.0055086208 0.62129593 0.7835567 nan
-0.21155065 0.20626189 -0.92199999 -0.018277738 0.6215511 0.78316033 nan
-0.20978773 0.20626189 -0.92199999 -0.034501962 0.62126291 0.78284216 nan
-0.20757358 0.20581447 -0.92000002 -0.062778421 0.61999434 0.78209078 nan
-0.20581447 0.20581447 -0.92000002 -0.072895668 0.62119752 0.78025627 nan
-0.20405537 0.20581447 -0.92000002 -0.057489172 0.61915499 0.78316164 nan
-0.20273605 0.20626189 -0.92199999 -0.038043059 0.62008512 0.7836116 nan
-0.20053717 0.20581447 -0.92000002 -0.0091121225 0.62092209 0.78381938 nan
-0.19877808 0.20581447 -0.92000002 0.011122199 0.62031275 0.78427571 nan
-0.19744729 0.20626189 -0.92199999 0.018696787 0.61822134 0.78578162 nan
-0.19568436 0.20626189 -0.92199999 0.015258377 0.60830188 0.79355913 nan
-0.19392143 0.20626189 -0.92199999 0.028624227 0.60453612 0.79606324 nan
-0.19215851 0.20626189 -0.92199999 0.03664634 0.59800327 0.80065554 nan
-0.19039559 0.20626189 -0.92199999 0.025145866 0.59396303 0.80409926 nan
-0.18863267 0.20626189 -0.92199999 0.0076372628 0.59241068 0.80559987 nan
-0.18686974 0.20626189 -0.92199999 -0.034367569 0.58802807 0.80811 nan
-0.18510683 0.20626189 -0.92199999 -0.03784899 0.59288383 0.80439812 nan
-0.1833439 0.20626189 -0.92199999 -0.022712747 0.6007244 0.79913366 nan
-0.18158098 0.20626189 -0.92199999 -0.028027629 0.60806817 0.79338998 nan
-0.17981806 0.20626189 -0.92199999 -0.029697932 0.61272633 0.78973699 nan
-0.17805514 0.20626189 -0.92199999 -0.02929179 0.62302518 0.78165311 nan
-0.17629221 0.20626189 -0.92199999 -0.043208249 0.62686372 0.7779299 nan
-0.17452928 0.20626189 -0.92199999 -0.034129743 0.63244057 0.77385664 nan
-0.17276637 0.20626189 -0.92199999 0.0050326861 0.6432656 0.76562661 nan
-0.17100345 0.20626189 -0.92199999 0.024717206 0.64647287 0.76253653 nan
-0.16924052 0.20626189 -0.92199999 0.024656383 0.64889514 0.76047832 nan
-0.16747761 0.20626189 -0.92199999 0.021119636 0.64768827 0.76161253 nan
-0.16571468 0.20626189 -0.92199999 0.028183253 0.649773 0.75960577 nan
-0.16395175 0.20626189 -0.92199999 0.028296499 0.6488359 0.76040202 nan
-0.16218884 0.20626189 -0.92199999 0.015987808 0.64792699 0.76153469 nan
-0.16042592 0.20626189 -0.92199999 0.0089377007 0.64484209 0.76426345 nan
-0.15866299 0.20626189 -0.92199999 0.022969896 0.64587176 0.76310027 nan
-0.15690006 0.20626189 -0.92199999 0.026342941 0.6501925 0.75931281 nan
-0.15513715 0.20626189 -0.92199999 0.0069560446 0.64877743 0.76094645 nan
-0.15337422 0.20626189 -0.92199999 0.029486338 0.65367472 0.75620103 nan
-0.1516113 0.20626189 -0.92199999 0.065980911 0.65866208 0.74954045 nan
-0.14984839 0.20626189 -0.92199999 0.06410607 0.6601088 0.7484296 nan
-0.1485673 0.20693302 -0.92500001 0.058900714 0.65901357 0.74982125 nan
-0.14632253 0.20626189 -0.92199999 0.061879802 0.66302299 0.74603713 nan
-0.14455962 0.20626189 -0.92199999 0.060045931 0.66439188 0.74496835 nan
-0.14326133 0.20693302 -0.92500001 0.079020835 0.6663835 0.74140984 nan
-0.14149266 0.20693302 -0.92500001 0.098518729 0.66424042 0.74099857 nan
-0.13972402 0.20693302 -0.92500001 0.087474898 0.65763861 0.74823767 nan
-0.13795535 0.20693302 -0.92500001 0.084967248 0.65094382 0.75435579 nan
-0.13618669 0.20693302 -0.92500001 0.062739089 0.64351648 0.76285678 nan
-0.13441804 0.20693302 -0.92500001 0.05096186 0.63435042 0.77136397 nan
-0.13264938 0.20693302 -0.92500001 0.070047118 0.62582529 0.77681154 nan
-0.13088071 0.20693302 -0.92500001 0.069123089 0.61630154 0.7844708 nan
-0.12911206 0.20693302 -0.92500001 0.087192774 0.60573107 0.79087752 nan
-0.1273434 0.20693302 -0.92500001 0.15761086 0.60190654 0.78285843 nan
-0.12557474 0.20693302 -0.92500001 0.23633488 0.59414828 0.76885217 nan
-0.12407377 0.20738044 -0.92699999 0.35867172 0.56459385 0.74336302 nan
-0.12230129 0.20738044 -0.92699999 0.66056848 0.41202083 0.62760496 nan
-0.1205288 0.20738044 -0.92699999 0.81381571 0.26875147 0.51524431 nan
-0.11875632 0.20738044 -0.92699999 0.8665514 0.15452603 0.4745633 nan
-0.11698384 0.20738044 -0.92699999 0.93983245 0.042797584 0.33894467 nan
-0.11558422 0.20805158 -0.93000001 0.95942503 0.062424235 0.27496684 nan
-0.1146626 0.20961756 -0.93699998 0.9582426 0.073745571 0.27628377 nan
-0.11383467 0.21140724 -0.94499999 0.95876777 0.079004064 0.27298868 nan
-0.11202777 0.21140724 -0.94499999 0.95729023 0.080828644 0.27760059 nan
-0.30556297 0.20139378 -0.90799999 -0.76076514 0.18032041 0.6234749 nan
-0.30382681 0.20139378 -0.90799999 -0.77283949 0.14800057 0.61710209 nan
-0.30275607 0.20183739 -0.91000003 -0.77617878 0.12856977 0.61726534 nan
-0.30101609 0.20183739 -0.91000003 -0.78402036 0.10216402 0.61227006 nan
-0.29927611 0.20183739 -0.91000003 -0.78086877 0.081027977 0.61941779 nan
-0.29851702 0.20250277 -0.91299999 -0.6681326 0.075624414 0.74018914 nan
-0.29677132 0.20250277 -0.91299999 -0.11771735 0.069643296 0.99060202 nan
-0.29502559 0.20250277 -0.91299999 0.24840096 0.017629653 0.96849686 nan
-0.29327989 0.20250277 -0.91299999 0.19673373 0.11543275 0.97363806 nan
-0.29153416 0.20250277 -0.91299999 0.16278367 0.17949872 0.97019666 nan
-0.28978845 0.20250277 -0.91299999 0.12790956 0.23142584 0.96440715 nan
-0.28804272 0.20250277 -0.91299999 0.11288586 0.29170972 0.94982225 nan
-0.28692418 0.20294638 -0.91500002 0.10457835 0.33459467 0.93654144 nan
-0.28455132 0.20250277 -0.91299999 0.16664766 0.38807365 0.90643662 nan
-0.28342512 0.20294638 -0.91500002 0.20440355 0.43515882 0.87684429 nan
-0.28229126 0.20338997 -0.917 0.18045156 0.47431788 0.86166108 nan
-0.2805379 0.20338997 -0.917 0.13727444 0.49518082 0.85787624 nan
-0.27817652 0.20294638 -0.91500002 0.11936431 0.50850981 0.85274267 nan
-0.27642697 0.20294638 -0.91500002 0.1241607 0.52277476 0.84338057 nan
-0.27527779 0.20338997 -0.917 0.098360956 0.53426528 0.83957469 nan
-0.27352443 0.20338997 -0.917 0.082561001 0.5406782 0.83716828 nan
-0.27177107 0.20338997 -0.917 0.095553041 0.54165977 0.83514923 nan
-0.27001771 0.20338997 -0.917 0.099561304 0.54440904 0.83289039 nan
-0.26826435 0.20338997 -0.917 0.050806127 0.53338283 0.84434676 nan
-0.26651099 0.20338997 -0.917 -0.012474459 0.51928174 0.8545121 nan
-0.26475763 0.20338997 -0.917 -0.045944992 0.50789809 0.86019105 nan
-0.26300427 0.20338997 -0.917 -0.054668158 0.49857715 0.86511976 nan
-0.26125091 0.20338997 -0.917 -0.046560969 0.49576631 0.86720693 nan
-0.25949755 0.20338997 -0.917 -0.051118422 0.48818055 0.87124431 nan
-0.25774419 0.20338997 -0.917 -0.055476069 0.48476967 0.8728807 nan
-0.25543252 0.20294638 -0.91500002 -0.045166943 0.48202786 0.87499088 nan
-0.25368297 0.20294638 -0.91500002 -0.034531478 0.48353025 0.87464625 nan
-0.25193343 0.20294638 -0.91500002 -0.038948458 0.48008484 0.8763569 nan
-0.25018391 0.20294638 -0.91500002 -0.03676378 0.48329517 0.87468523 nan
-0.24843436 0.20294638 -0.91500002 -0.015265402 0.48894978 0.87217832 nan
-0.24668482 0.20294638 -0.91500002 0.0042163976 0.49553367 0.86857849 nan
-0.24493529 0.20294638 -0.91500002 0.016997384 0.51227951 0.85865057 nan
-0.24318574 0.20294638 -0.91500002 0.014655725 0.52278203 0.85234034 nan
-0.24143621 0.20294638 -0.91500002 0.003977879 0.53584969 0.84430403 nan
-0.23968667 0.20294638 -0.91500002 0.026571659 0.54836899 0.83581418 nan
-0.23793714 0.20294638 -0.91500002 0.057308383 0.55733824 0.82830536 nan
-0.23618759 0.20294638 -0.91500002 0.061268076 0.56002158 0.82620949 nan
-0.23443806 0.20294638 -0.91500002 0.07308998 0.56687343 0.8205561 nan
-0.23319712 0.20338997 -0.917 0.07451611 0.5727638 0.8163265 nan
-0.23144376 0.20338997 -0.917 0.059425175 0.58064091 0.81198812 nan
-0.2296904 0.20338997 -0.917 0.068159185 0.59446377 0.80122852 nan
-0.22868274 0.20405537 -0.92000002 0.077222891 0.60246021 0.79440433 nan
-0.22692364 0.20405537 -0.92000002 0.084432714 0.60806018 0.78938824 nan
-0.22443031 0.20338997 -0.917 0.10564952 0.61122674 0.78437233 nan
-0.22340545 0.20405537 -0.92000002 0.10027037 0.60778391 0.78774655 nan
-0.22164635 0.20405537 -0.92000002 0.085508078 0.61486846 0.78398037 nan
-0.21988726 0.20405537 -0.92000002 0.063982494 0.6181823 0.7834264 nan
-0.21812816 0.20405537 -0.92000002 0.028122349 0.61691874 0.7865243 nan
-0.21636906 0.20405537 -0.92000002 0.011507582 0.61128283 0.79132861 nan
-0.21507651 0.20449896 -0.92199999 0.0078279451 0.60588938 0.79551029 nan
-0.21331358 0.20449896 -0.92199999 -0.0016739162 0.602745 0.79793215 nan
-0.21155065 0.20449896 -0.92199999 -0.024448168 0.59798127 0.80113709 nan
-0.20933267 0.20405537 -0.92000002 -0.046756174 0.59802908 0.80010945 nan
-0.20757358 0.20405537 -0.92000002 -0.075872697 0.59675658 0.79882717 nan
-0.20581447 0.20405537 -0.92000002 -0.075503945 0.59982109 0.7965638 nan
-0.20338997 0.20338997 -0.917 -0.054035973 0.59819037 0.79953015 nan
-0.20163661 0.20338997 -0.917 -0.033602696 0.60393059 0.79632819 nan
-0.19988325 0.20338997 -0.917 -0.0019736369 0.60767663 0.79418206 nan
-0.19812989 0.20338997 -0.917 0.018764125 0.60878426 0.79311383 nan
-0.19637652 0.20338997 -0.917 0.030384552 0.60683733 0.79424512 nan
-0.19525988 0.20405537 -0.92000002 0.026959166 0.59841275 0.80073434 nan
-0.19350079 0.20405537 -0.92000002 0.040797215 0.59432727 0.80318779 nan
-0.19174169 0.20405537 -0.92000002 0.048830166 0.59166265 0.8047055 nan
-0.18998259 0.20405537 -0.92000002 0.031373307 0.58499271 0.81043142 nan
-0.1882235 0.20405537 -0.92000002 0.00775328 0.58295977 0.81246406 nan
-0.1864644 0.20405537 -0.92000002 -0.034868233 0.58067966 0.81338507 nan
-0.1847053 0.20405537 -0.92000002 -0.044448525 0.57967174 0.81363696 nan
-0.18294621 0.20405537 -0.92000002 -0.034908161 0.58194059 0.8124817 nan
-0.18118709 0.20405537 -0.92000002 -0.040201493 0.5898006 0.8065477 nan
-0.1788429 0.20338997 -0.917 -0.041763894 0.59583431 0.80202073 nan
-0.17708954 0.20338997 -0.917 -0.041344866 0.60391182 0.79597807 nan
-0.17533618 0.20338997 -0.917 -0.050305124 0.60581225 0.79401565 nan
-0.17452928 0.20449896 -0.92199999 -0.040982515 0.60897362 0.79213101 nan
-0.17276637 0.20449896 -0.92199999 -0.00012481878 0.61985004 0.78472024 nan
-0.17063251 0.20405537 -0.92000002 0.020324688 0.62335688 0.78167331 nan
-0.16887341 0.20405537 -0.92000002 0.020279029 0.62608528 0.77949083 nan
-0.16711432 0.20405537 -0.92000002 0.016577626 0.62569827 0.77988905 nan
-0.16535522 0.20405537 -0.92000002 0.023814144 0.63073754 0.77563071 nan
-0.16359612 0.20405537 -0.92000002 0.029311849 0.63104695 0.77519065 nan
-0.16183703 0.20405537 -0.92000002 0.016496971 0.63011205 0.77632892 nan
-0.16007793 0.20405537 -0.92000002 0.0092075635 0.62774229 0.77836668 nan
-0.15780257 0.20338997 -0.917 0.01818572 0.63023949 0.77618772 nan
-0.15655972 0.20405537 -0.92000002 0.021753378 0.63313711 0.77373385 nan
-0.15513715 0.20449896 -0.92199999 0.0016891859 0.63162261 0.7752741 nan
-0.15337422 0.20449896 -0.92199999 0.02132169 0.63752705 0.77013278 nan
-0.15128243 0.20405537 -0.92000002 0.060702804 0.64391702 0.76268345 nan
-0.14984839 0.20449896 -0.92199999 0.063949414 0.6481989 0.75878096 nan
-0.14808546 0.20449896 -0.92199999 0.05298721 0.64931035 0.75867552 nan
-0.14632253 0.20449896 -0.92199999 0.054080464 0.65587825 0.75292695 nan
-0.14455962 0.20449896 -0.92199999 0.060861427 0.66002727 0.74877226 nan
-0.1427967 0.20449896 -0.92199999 0.080020361 0.66206127 0.74516553 nan
-0.14103377 0.20449896 -0.92199999 0.10445521 0.66225064 0.74196571 nan
-0.13927084 0.20449896 -0.92199999 0.098229982 0.65804452 0.74654424 nan
-0.13795535 0.20516437 -0.92500001 0.099419504 0.65137154 0.75221729 nan
-0.135745 0.20449896 -0.92199999 0.079283908 0.64246517 0.76220244 nan
-0.13398208 0.20449896 -0.92199999 0.069640331 0.63155961 0.77219349 nan
-0.13264938 0.20516437 -0.92500001 0.093014538 0.62172365 0.77769399 nan
-0.13088071 0.20516437 -0.92500001 0.094530843 0.61100769 0.78596026 nan
-0.12911206 0.20516437 -0.92500001 0.10574258 0.59879786 0.79388899 nan
-0.1273434 0.20516437 -0.92500001 0.16264355 0.59039783 0.79055524 nan
-0.12557474 0.20516437 -0.92500001 0.254287 0.57481098 0.77777278 nan
-0.12380608 0.20516437 -0.92500001 0.44940561 0.50109959 0.7395497 nan
-0.12203743 0.20516437 -0.92500001 0.74870992 0.3241486 0.57823962 nan
-0.12026877 0.20516437 -0.92500001 0.86352026 0.19958781 0.46313876 nan
-0.11850011 0.20516437 -0.92500001 0.9018563 0.099759035 0.42036092 nan
-0.11698384 0.20560797 -0.92699999 0.9466148 0.0087790163 0.32224742 nan
-0.11558422 0.20627336 -0.93000001 0.96021473 0.032245021 0.27739483 nan
-0.1146626 0.20782596 -0.93699998 0.9601863 0.046814613 0.27540973 nan
-0.11443698 0.21070935 -0.94999999 0.96106029 0.055358391 0.27073729 nan
-0.30382681 0.19965762 -0.90799999 -0.78419983 0.054774113 0.61808604 nan
-0.30275607 0.20009741 -0.91000003 -0.78810126 0.024892641 0.61504203 nan
-0.30101609 0.20009741 -0.91000003 -0.79409993 -0.010692977 0.60769331 nan
-0.29927611 0.20009741 -0.91000003 -0.78919023 -0.048450571 0.61223471 nan
-0.29851702 0.20075706 -0.91299999 -0.66572094 -0.13613333 0.73367804 nan
-0.29677132 0.20075706 -0.91299999 -0.12761915 -0.18354994 0.97469103 nan
-0.29502559 0.20075706 -0.91299999 0.13455656 -0.047868934 0.98974901 nan
-0.29327989 0.20075706 -0.91299999 0.11404952 0.034951385 0.99286002 nan
-0.29153416 0.20075706 -0.91299999 0.10558555 0.10833726 0.98849112 nan
-0.28978845 0.20075706 -0.91299999 0.075114213 0.1558664 0.98491794 nan
-0.28804272 0.20075706 -0.91299999 0.067895949 0.2066275 0.97606099 nan
-0.28692418 0.20119683 -0.91500002 0.064022571 0.24042745 0.96855348 nan
-0.28455132 0.20075706 -0.91299999 0.12374827 0.29222196 0.94831038 nan
-0.28280559 0.20075706 -0.91299999 0.1625872 0.33535784 0.92795497 nan
-0.28167558 0.20119683 -0.91500002 0.14449427 0.38120812 0.91312748 nan
-0.27992603 0.20119683 -0.91500002 0.12151722 0.40819535 0.90477079 nan
-0.27756846 0.20075706 -0.91299999 0.11027812 0.42179817 0.89995831 nan
-0.27582273 0.20075706 -0.91299999 0.11099591 0.43917245 0.89151978 nan
-0.27467743 0.20119683 -0.91500002 0.088113457 0.45413077 0.88656712 nan
-0.27292788 0.20119683 -0.91500002 0.075893186 0.46116748 0.88406146 nan
-0.27117836 0.20119683 -0.91500002 0.089578621 0.46700284 0.87970674 nan
-0.26942882 0.20119683 -0.91500002 0.10083013 0.47251049 0.87553823 nan
-0.26767927 0.20119683 -0.91500002 0.0545615 0.46854493 0.88175321 nan
-0.26651099 0.20163661 -0.917 -0.0066325637 0.46192506 0.88689423 nan
-0.26475763 0.20163661 -0.917 -0.039989565 0.45299926 0.89061356 nan
-0.26300427 0.20163661 -0.917 -0.053373553 0.44654042 0.89317018 nan
-0.26068112 0.20119683 -0.91500002 -0.040225603 0.44686651 0.89369583 nan
-0.25893158 0.20119683 -0.91500002 -0.046996836 0.44124293 0.89615619 nan
-0.25718206 0.20119683 -0.91500002 -0.051628351 0.43585941 0.89853275 nan
-0.25543252 0.20119683 -0.91500002 -0.040738642 0.43246329 0.90073079 nan
-0.25368297 0.20119683 -0.91500002 -0.036361441 0.42973122 0.90222448 nan
-0.25193343 0.20119683 -0.91500002 -0.040885441 0.42919925 0.90228397 nan
-0.25018391 0.20119683 -0.91500002 -0.038696881 0.42950451 0.90223515 nan
-0.24843436 0.20119683 -0.91500002 -0.022806177 0.43635866 0.89948374 nan
-0.24668482 0.20119683 -0.91500002 -0.015979154 0.44202974 0.89685798 nan
-0.24493529 0.20119683 -0.91500002 -0.0090806205 0.46034244 0.88769495 nan
-0.24318574 0.20119683 -0.91500002 -0.011148897 0.47691566 0.87887836 nan
-0.24143621 0.20119683 -0.91500002 -0.015394147 0.4896605 0.87177724 nan
-0.23968667 0.20119683 -0.91500002 0.014910309 0.50589305 0.86246729 nan
-0.23793714 0.20119683 -0.91500002 0.053389218 0.52192974 0.85131609 nan
-0.23618759 0.20119683 -0.91500002 0.05693081 0.53288686 0.84426916 nan
-0.23443806 0.20119683 -0.91500002 0.058214091 0.54458505 0.83668286 nan
-0.23268852 0.20119683 -0.91500002 0.055145126 0.55792123 0.82805979 nan
-0.23093899 0.20119683 -0.91500002 0.03990313 0.56844574 0.82175255 nan
-0.2296904 0.20163661 -0.917 0.051037174 0.58423388 0.80997908 nan
-0.22793704 0.20163661 -0.917 0.066183738 0.59520262 0.8008455 nan
-0.22618368 0.20163661 -0.917 0.077274241 0.60334212 0.79372984 nan
-0.22443031 0.20163661 -0.917 0.10183422 0.61193508 0.78432471 nan
-0.22267695 0.20163661 -0.917 0.089854948 0.6131953 0.78480428 nan
-0.22092359 0.20163661 -0.917 0.071660176 0.61887002 0.7822178 nan
-0.21917023 0.20163661 -0.917 0.061920363 0.62193108 0.78061998 nan
-0.21812816 0.20229627 -0.92000002 0.039516274 0.6190235 0.78437769 nan
-0.21636906 0.20229627 -0.92000002 0.03045176 0.61329424 0.7892673 nan
-0.21460997 0.20229627 -0.92000002 0.017470598 0.60501587 0.7960217 nan
-0.21285087 0.20229627 -0.92000002 0.0022220542 0.601322 0.79900378 nan
-0.21109177 0.20229627 -0.92000002 -0.020679865 0.59662479 0.80225378 nan
-0.20865005 0.20163661 -0.917 -0.047243543 0.59110838 0.80520731 nan
-0.20689669 0.20163661 -0.917 -0.077298455 0.58471203 0.80754983 nan
-0.20514333 0.20163661 -0.917 -0.07389874 0.58221662 0.8096683 nan
-0.20294638 0.20119683 -0.91500002 -0.057266541 0.58262068 0.8107242 nan
-0.20119683 0.20119683 -0.91500002 -0.045828294 0.58742452 0.80798036 nan
-0.1994473 0.20119683 -0.91500002 -0.0077662291 0.59724456 0.80202162 nan
-0.19769776 0.20119683 -0.91500002 0.019038763 0.59992206 0.79983181 nan
-0.19594823 0.20119683 -0.91500002 0.040354598 0.60170275 0.79770005 nan
-0.19462316 0.20163661 -0.917 0.040707111 0.59649432 0.80158436 nan
-0.1928698 0.20163661 -0.917 0.044741899 0.59466618 0.80272675 nan
-0.19111644 0.20163661 -0.917 0.052416533 0.59728515 0.80031431 nan
-0.18936308 0.20163661 -0.917 0.034812164 0.59600955 0.80222237 nan
-0.18760972 0.20163661 -0.917 0.0038067119 0.59642386 0.80266052 nan
-0.18585636 0.20163661 -0.917 -0.038073264 0.59398031 0.80357808 nan
-0.184103 0.20163661 -0.917 -0.040031523 0.59381968 0.80360174 nan
-0.18234964 0.20163661 -0.917 -0.040178038 0.59180647 0.80507815 nan
-0.18059626 0.20163661 -0.917 -0.05469241 0.59719718 0.80022758 nan
-0.1788429 0.20163661 -0.917 -0.056183413 0.60205519 0.79647523 nan
-0.17708954 0.20163661 -0.917 -0.050166659 0.60967106 0.79106545 nan
