# .PCD v0.7 - Point Cloud Data file format
VERSION 0.7
FIELDS x y z normal_x normal_y normal_z curvature
SIZE 4 4 4 4 4 4 4
TYPE F F F F F F F
COUNT 1 1 1 1 1 1 1
WIDTH 646
HEIGHT 1
VIEWPOINT 0 0 0 1 0 0 0
POINTS 646
DATA ascii
-0.037476435 0.07762976 -0.69999999 0.044368766 0.69752014 0.71519029 nan
-0.036137991 0.07762976 -0.69999999 0.047470979 0.6895135 0.72271556 nan
-0.034799546 0.07762976 -0.69999999 -0.019312741 0.68964016 0.7238946 nan
-0.033461101 0.07762976 -0.69999999 -0.1562579 0.66430062 0.7309503 nan
-0.03212266 0.07762976 -0.69999999 -0.24323887 0.6383338 0.73031831 nan
-0.030784216 0.07762976 -0.69999999 -0.39631087 0.61897933 0.67808723 nan
-0.029361641 0.077407964 -0.69800001 -0.45414606 0.56785434 0.68650782 nan
-0.027986867 0.077297062 -0.69700003 -0.60747874 0.44170964 0.66019863 nan
-0.073088609 0.07574638 -0.69499999 -0.13961071 0.55853474 0.81764758 nan
-0.071759723 0.07574638 -0.69499999 -0.031727314 0.56959426 0.82131344 nan
-0.070430845 0.07574638 -0.69499999 -0.00024204471 0.67314678 0.73950893 nan
-0.069101959 0.07574638 -0.69499999 -0.10026624 0.71694046 0.68988633 nan
-0.067773074 0.07574638 -0.69499999 -0.058454815 0.71053523 0.70122945 nan
-0.066444188 0.07574638 -0.69499999 -0.087178499 0.69622797 0.71250719 nan
-0.065021619 0.075637393 -0.69400001 -0.062203765 0.70775855 0.70371062 nan
-0.063694648 0.075637393 -0.69400001 -0.094066069 0.70779723 0.7001248 nan
-0.062367674 0.075637393 -0.69400001 -0.10626514 0.68761623 0.71825594 nan
-0.061040703 0.075637393 -0.69400001 -0.094159454 0.69746816 0.71040279 nan
-0.059713729 0.075637393 -0.69400001 -0.082845569 0.69564956 0.71358842 nan
-0.058386758 0.075637393 -0.69400001 -0.076362476 0.69210047 0.71775049 nan
-0.057059787 0.075637393 -0.69400001 -0.077165179 0.68660104 0.72292775 nan
-0.055732816 0.075637393 -0.69400001 -0.049072135 0.68219763 0.72951919 nan
-0.054405842 0.075637393 -0.69400001 -0.014956201 0.67966717 0.73336816 nan
-0.053002391 0.075528406 -0.69300002 -0.0025507635 0.67537332 0.73747164 nan
-0.051677331 0.075528406 -0.69300002 0.057835709 0.67156047 0.73868912 nan
-0.050424926 0.075637393 -0.69400001 0.1173813 0.67372751 0.72959769 nan
-0.049027212 0.075528406 -0.69300002 0.12555279 0.66942108 0.73219657 nan
-0.047770984 0.075637393 -0.69400001 0.12825444 0.66778058 0.7332257 nan
-0.046444014 0.075637393 -0.69400001 0.12550896 0.66894829 0.73263609 nan
-0.045117039 0.075637393 -0.69400001 0.12550136 0.66873515 0.7328319 nan
-0.043979365 0.075964354 -0.69700003 0.14238575 0.66998518 0.72859192 nan
-0.042707842 0.076073341 -0.69800001 0.14228797 0.67096895 0.72770512 nan
-0.041373223 0.076073341 -0.69800001 0.11809883 0.66969031 0.73318994 nan
-0.039981239 0.075964354 -0.69700003 0.097505815 0.68390685 0.72302425 nan
-0.038648531 0.075964354 -0.69700003 0.067103736 0.70562696 0.70539898 nan
-0.037315823 0.075964354 -0.69700003 0.06454315 0.69538307 0.71573502 nan
-0.035983115 0.075964354 -0.69700003 0.034309771 0.70527792 0.7081002 nan
-0.034700122 0.076073341 -0.69800001 0.033106953 0.70894325 0.70448798 nan
-0.033365503 0.076073341 -0.69800001 -0.080574229 0.68602985 0.7230981 nan
-0.031984992 0.075964354 -0.69700003 -0.22764549 0.66389459 0.71233523 nan
-0.030652285 0.075964354 -0.69700003 -0.28680593 0.65962517 0.6947208 nan
-0.029319577 0.075964354 -0.69700003 -0.4035728 0.56478155 0.719827 nan
-0.027986867 0.075964354 -0.69700003 -0.42512265 0.54665977 0.72141099 nan
-0.074417494 0.074417494 -0.69499999 -0.15265052 0.45792809 0.87578517 nan
-0.072983451 0.074310422 -0.69400001 -0 0.40925065 0.91242194 nan
-0.071759723 0.074417494 -0.69499999 -0.032373801 0.55066955 0.8340953 nan
-0.070329502 0.074310422 -0.69400001 -0.084535077 0.6074841 0.78982079 nan
-0.069101959 0.074417494 -0.69499999 -0.15117484 0.64404929 0.74989778 nan
-0.067675561 0.074310422 -0.69400001 -0.084471039 0.70627111 0.7028839 nan
-0.06634859 0.074310422 -0.69400001 -0.089318804 0.68349445 0.7244705 nan
-0.064927928 0.074203342 -0.69300002 -0.072350033 0.68426144 0.72563881 nan
-0.063602865 0.074203342 -0.69300002 -0.11603925 0.66738296 0.73561883 nan
-0.062277809 0.074203342 -0.69300002 -0.11523204 0.67224371 0.73130703 nan
-0.060952749 0.074203342 -0.69300002 -0.099836394 0.67924768 0.72708678 nan
-0.059627689 0.074203342 -0.69300002 -0.082863629 0.68127042 0.72732681 nan
-0.05830263 0.074203342 -0.69300002 -0.073325828 0.68122023 0.72839713 nan
-0.05697757 0.074203342 -0.69300002 -0.071638174 0.67560428 0.73377579 nan
-0.05565251 0.074203342 -0.69300002 -0.040031057 0.67455709 0.73713654 nan
-0.054327451 0.074203342 -0.69300002 -0.0050885906 0.67404401 0.73867357 nan
-0.053002391 0.074203342 -0.69300002 0.0025318738 0.66930842 0.7429803 nan
-0.051677331 0.074203342 -0.69300002 0.055656157 0.67020971 0.74008197 nan
-0.050352272 0.074203342 -0.69300002 0.1160646 0.66993999 0.73328674 nan
-0.048885714 0.07398919 -0.69099998 0.12660907 0.66664219 0.7345463 nan
-0.047702152 0.074203342 -0.69300002 0.1290749 0.66625053 0.73447251 nan
-0.046444014 0.074310422 -0.69400001 0.12904131 0.66599262 0.7347123 nan
-0.045052033 0.074203342 -0.69300002 0.12675425 0.66459954 0.73637009 nan
-0.043853167 0.074417494 -0.69499999 0.1435097 0.66712904 0.73098826 nan
-0.042524282 0.074417494 -0.69499999 0.14892259 0.66522747 0.73163831 nan
-0.0411954 0.074417494 -0.69499999 0.12191305 0.66414714 0.7375946 nan
-0.039866515 0.074417494 -0.69499999 0.1024652 0.6728375 0.73265994 nan
-0.038537629 0.074417494 -0.69499999 0.068687536 0.67225283 0.73712832 nan
-0.037208747 0.074417494 -0.69499999 0.07279437 0.69093871 0.71923894 nan
-0.035983115 0.074631646 -0.69700003 0.034742787 0.68951124 0.7234413 nan
-0.034650408 0.074631646 -0.69700003 0.010068195 0.70609343 0.70804709 nan
-0.0333177 0.074631646 -0.69700003 -0.025815846 0.71165287 0.70205683 nan
-0.031984992 0.074631646 -0.69700003 -0.15918675 0.65674806 0.73711705 nan
-0.030652285 0.074631646 -0.69700003 -0.25977296 0.5920468 0.76288837 nan
-0.029235443 0.074417494 -0.69499999 -0.32681903 0.59110576 0.73741663 nan
-0.027866408 0.074310422 -0.69400001 -0.37173176 0.54293662 0.75301749 nan
-0.026539436 0.074310422 -0.69400001 -0.53442395 0.47471452 0.69931197 nan
-0.074310422 0.072983451 -0.69400001 -0.22446944 0.44926623 0.86473882 nan
-0.072983451 0.072983451 -0.69400001 -0.086964473 0.63765216 0.76539987 nan
-0.071656473 0.072983451 -0.69400001 -0.069448434 0.59022164 0.80424827 nan
-0.070329502 0.072983451 -0.69400001 -0.12670834 0.54147303 0.83111489 nan
-0.069002531 0.072983451 -0.69400001 -0.11898765 0.6089946 0.78419858 nan
-0.067578048 0.072878286 -0.69300002 -0.12208437 0.5979712 0.79216516 nan
-0.066252984 0.072878286 -0.69300002 -0.094883889 0.65819609 0.7468434 nan
-0.064740539 0.072667956 -0.69099998 -0.10283834 0.65919423 0.74490744 nan
-0.063602865 0.072878286 -0.69300002 -0.1265085 0.66120827 0.73945868 nan
-0.062277809 0.072878286 -0.69300002 -0.12202899 0.66327721 0.73835778 nan
-0.060952749 0.072878286 -0.69300002 -0.10233127 0.6658864 0.73900175 nan
-0.059627689 0.072878286 -0.69300002 -0.085001163 0.66795909 0.73932767 nan
-0.05830263 0.072878286 -0.69300002 -0.065135501 0.67001516 0.73948419 nan
-0.056813128 0.072667956 -0.69099998 -0.060809609 0.66295135 0.7461887 nan
-0.05565251 0.072878286 -0.69300002 -0.03827646 0.66342628 0.747262 nan
-0.054327451 0.072878286 -0.69300002 -5.3414831e-05 0.66797769 0.74418133 nan
-0.053002391 0.072878286 -0.69300002 0.0077105463 0.66172558 0.74970645 nan
-0.051528186 0.072667956 -0.69099998 0.056661502 0.66112715 0.74813122 nan
-0.050206952 0.072667956 -0.69099998 0.12326898 0.66060972 0.74054003 nan
-0.048885714 0.072667956 -0.69099998 0.13372429 0.65846604 0.7406351 nan
-0.04756448 0.072667956 -0.69099998 0.13082767 0.65965182 0.74009693 nan
-0.046243243 0.072667956 -0.69099998 0.13054857 0.66069132 0.73921853 nan
-0.044922009 0.072667956 -0.69099998 0.12315741 0.65947938 0.74156541 nan
-0.043726973 0.072878286 -0.69300002 0.13960722 0.66474599 0.73390913 nan
-0.042401914 0.072878286 -0.69300002 0.15222029 0.66359621 0.73244053 nan
-0.04107685 0.072878286 -0.69300002 0.12225523 0.66401917 0.73765314 nan
-0.039809152 0.072983451 -0.69400001 0.11394235 0.66812718 0.73527086 nan
-0.038426731 0.072878286 -0.69300002 0.060851648 0.68983001 0.72140956 nan
-0.037155211 0.072983451 -0.69400001 0.036434148 0.69284075 0.72016972 nan
-0.035828236 0.072983451 -0.69400001 0.0032960838 0.68524361 0.72830641 nan
-0.03455098 0.073088609 -0.69499999 -0.0036216388 0.69180065 0.7220794 nan
-0.033222094 0.073088609 -0.69499999 -0.0049288021 0.66890609 0.74333042 nan
-0.031893212 0.073088609 -0.69499999 -0.069169767 0.67300993 0.7363919 nan
-0.030564329 0.073088609 -0.69499999 -0.20235397 0.59677941 0.77647102 nan
-0.029193379 0.072983451 -0.69400001 -0.32675633 0.55540639 0.76469213 nan
-0.027866408 0.072983451 -0.69400001 -0.32373887 0.45328602 0.83049685 nan
-0.026501196 0.072878286 -0.69300002 -0.4911074 0.35062355 0.79741877 nan
-0.075637393 0.071656473 -0.69400001 -0.35433888 0.4250164 0.83294958 nan
-0.074310422 0.071656473 -0.69400001 -0.40285614 0.57582629 0.71142888 nan
-0.072878286 0.071553223 -0.69300002 -0.11788935 0.61887157 0.77659518 nan
-0.071553223 0.071553223 -0.69300002 -0.086670004 0.58933777 0.80322433 nan
-0.070228167 0.071553223 -0.69300002 -0.11814731 0.51993382 0.8459965 nan
-0.068903103 0.071553223 -0.69300002 -0.13308451 0.49893352 0.85636073 nan
-0.067578048 0.071553223 -0.69300002 -0.14686489 0.54008615 0.82869631 nan
-0.06606178 0.071346723 -0.69099998 -0.11402401 0.60684973 0.78659528 nan
-0.064740539 0.071346723 -0.69099998 -0.1048393 0.62516981 0.77341551 nan
-0.063419305 0.071346723 -0.69099998 -0.11761785 0.66361707 0.73876822 nan
-0.062098071 0.071346723 -0.69099998 -0.12252863 0.66324711 0.73830217 nan
-0.060688883 0.071243472 -0.69 -0.10279903 0.66587031 0.73895127 nan
-0.0594556 0.071346723 -0.69099998 -0.0860807 0.6628477 0.74378973 nan
-0.058134366 0.071346723 -0.69099998 -0.061177116 0.66279465 0.7462979 nan
-0.056730911 0.071243472 -0.69 -0.05658425 0.65675813 0.75197542 nan
-0.055491894 0.071346723 -0.69099998 -0.044077292 0.65379328 0.75538832 nan
-0.054170657 0.071346723 -0.69099998 0.0026532544 0.6602506 0.75104076 nan
-0.052849423 0.071346723 -0.69099998 0.018332049 0.65527934 0.75516421 nan
-0.051528186 0.071346723 -0.69099998 0.057411589 0.65564197 0.75288618 nan
-0.050134294 0.071243472 -0.69 0.11942233 0.65670681 0.74463034 nan
-0.048814971 0.071243472 -0.69 0.12922712 0.65858126 0.74133062 nan
-0.047495648 0.071243472 -0.69 0.12609956 0.66105288 0.73966753 nan
-0.046176322 0.071243472 -0.69 0.13070905 0.66309309 0.73703641 nan
-0.044922009 0.071346723 -0.69099998 0.11796649 0.66341722 0.73889208 nan
-0.043600772 0.071346723 -0.69099998 0.13186708 0.66879815 0.73165566 nan
-0.042279538 0.071346723 -0.69099998 0.15133618 0.66972142 0.72702861 nan
-0.0409583 0.071346723 -0.69099998 0.11619785 0.67167789 0.73167402 nan
-0.03975179 0.071553223 -0.69300002 0.10273683 0.67711091 0.72867417 nan
-0.038315833 0.071346723 -0.69099998 0.079701409 0.6826492 0.72638685 nan
-0.036994595 0.071346723 -0.69099998 0.040024739 0.68316072 0.72917044 nan
-0.035776611 0.071553223 -0.69300002 0.032120585 0.66052622 0.75011551 nan
-0.034451552 0.071553223 -0.69300002 0.019881515 0.67291749 0.73945034 nan
-0.033174295 0.071656473 -0.69400001 0.012188427 0.6648491 0.74687827 nan
-0.031847324 0.071656473 -0.69400001 -0.053962253 0.63492358 0.77068812 nan
-0.030476375 0.071553223 -0.69300002 -0.10244308 0.63114774 0.76886797 nan
-0.029151315 0.071553223 -0.69300002 -0.20686902 0.52917504 0.82290882 nan
-0.027745947 0.071346723 -0.69099998 -0.31083122 0.45715654 0.83330172 nan
-0.026501196 0.071553223 -0.69300002 -0.14970644 0.33682972 0.92958796 nan
-0.074203342 0.070228167 -0.69300002 -0.50565279 0.50565279 0.69902116 nan
-0.072667956 0.070025481 -0.69099998 -0.1358718 0.47558123 0.86911529 nan
-0.071346723 0.070025481 -0.69099998 -0.090907797 0.54531384 0.83328784 nan
-0.070025481 0.070025481 -0.69099998 -0.079166323 0.57737732 0.8126303 nan
-0.068704247 0.070025481 -0.69099998 -0.12810916 0.54454798 0.82888818 nan
-0.067383014 0.070025481 -0.69099998 -0.12873177 0.59335494 0.7945804 nan
-0.06606178 0.070025481 -0.69099998 -0.12170183 0.58237159 0.80376112 nan
-0.064646855 0.069924146 -0.69 -0.10884455 0.59573275 0.79577339 nan
-0.063327529 0.069924146 -0.69 -0.12118832 0.62858748 0.76823896 nan
-0.062008206 0.069924146 -0.69 -0.12901025 0.6278227 0.7675904 nan
-0.060688883 0.069924146 -0.69 -0.09798488 0.63164133 0.76904374 nan
-0.059369557 0.069924146 -0.69 -0.075345054 0.62524939 0.77677947 nan
-0.058050234 0.069924146 -0.69 -0.051485661 0.6243751 0.7794261 nan
-0.056648694 0.069822811 -0.68900001 -0.043418989 0.62200272 0.7818104 nan
-0.055331282 0.069822811 -0.68900001 -0.040936008 0.61765242 0.78538507 nan
-0.054013871 0.069822811 -0.68900001 0.0028828473 0.6213994 0.78348869 nan
-0.052772939 0.069924146 -0.69 0.019443318 0.61872894 0.78536403 nan
-0.051453616 0.069924146 -0.69 0.055088922 0.61908537 0.78338909 nan
-0.050134294 0.069924146 -0.69 0.12017486 0.62226158 0.77352983 nan
-0.048744224 0.069822811 -0.68900001 0.13005896 0.62757611 0.76761496 nan
-0.047426812 0.069822811 -0.68900001 0.12632561 0.63338 0.76346034 nan
-0.046176322 0.069924146 -0.69 0.13063599 0.63866836 0.75831193 nan
-0.044856999 0.069924146 -0.69 0.11430989 0.64198911 0.7581445 nan
-0.043537676 0.069924146 -0.69 0.12636435 0.64677584 0.75213903 nan
-0.042218354 0.069924146 -0.69 0.15079638 0.65183783 0.74321461 nan
-0.040899027 0.069924146 -0.69 0.11320007 0.66181684 0.74106967 nan
-0.039637066 0.070025481 -0.69099998 0.093670554 0.67275125 0.73391527 nan
-0.038315833 0.070025481 -0.69099998 0.075020581 0.68184716 0.72763747 nan
-0.036941059 0.069924146 -0.69 0.050087396 0.68341541 0.72830951 nan
-0.035621736 0.069924146 -0.69 0.0479277 0.66535741 0.74498481 nan
-0.034352124 0.070025481 -0.69099998 0.022630168 0.66039884 0.75057399 nan
-0.03303089 0.070025481 -0.69099998 0.029353317 0.63832289 0.76920885 nan
-0.031801432 0.070228167 -0.69300002 0.0059537431 0.61015636 0.79225868 nan
-0.030476375 0.070228167 -0.69300002 -0.029761489 0.62455809 0.78041112 nan
-0.029151315 0.070228167 -0.69300002 -0.073693879 0.49335453 0.86670089 nan
-0.027745947 0.070025481 -0.69099998 -0.17718081 0.43337756 0.88362366 nan
-0.026424712 0.070025481 -0.69099998 -0.075773254 0.34090912 0.93703753 nan
-0.072562791 0.068604819 -0.69 -0.070249088 0.4573645 0.8865003 nan
-0.071243472 0.068604819 -0.69 -0.073841587 0.53607327 0.84093565 nan
-0.069924146 0.068604819 -0.69 -0.054005545 0.62633735 0.77767915 nan
-0.068604819 0.068604819 -0.69 -0.10591927 0.60566372 0.78863961 nan
-0.0672855 0.068604819 -0.69 -0.1255507 0.61717391 0.77674538 nan
-0.065966174 0.068604819 -0.69 -0.11427699 0.60955548 0.78446341 nan
-0.064646855 0.068604819 -0.69 -0.10110182 0.63370854 0.76693678 nan
-0.063235752 0.068505399 -0.68900001 -0.12302627 0.61826658 0.77628022 nan
-0.061918341 0.068505399 -0.68900001 -0.13144603 0.61437273 0.77798986 nan
-0.060600929 0.068505399 -0.68900001 -0.094400108 0.62029612 0.77866644 nan
-0.059283517 0.068505399 -0.68900001 -0.070885301 0.61804599 0.78293955 nan
-0.057966106 0.068505399 -0.68900001 -0.054638002 0.61943382 0.78314519 nan
-0.056648694 0.068505399 -0.68900001 -0.046448659 0.6185016 0.78440946 nan
-0.055170666 0.068306535 -0.68699998 -0.041131694 0.61581528 0.78681618 nan
-0.053857077 0.068306535 -0.68699998 0.0056754109 0.6181314 0.78605431 nan
-0.052696459 0.068505399 -0.68900001 0.025039671 0.61863184 0.7852819 nan
-0.051379047 0.068505399 -0.68900001 0.05284876 0.61413783 0.78742731 nan
-0.050061636 0.068505399 -0.68900001 0.10804313 0.61473435 0.78129917 nan
-0.048744224 0.068505399 -0.68900001 0.11546986 0.62052661 0.77563745 nan
-0.047289141 0.068306535 -0.68699998 0.1122229 0.62348491 0.77373934 nan
-0.046109401 0.068505399 -0.68900001 0.12260044 0.62585658 0.77024192 nan
-0.044791989 0.068505399 -0.68900001 0.10905356 0.62615842 0.77203178 nan
-0.043474577 0.068505399 -0.68900001 0.11606679 0.63169134 0.76648188 nan
-0.042218354 0.068604819 -0.69 0.12918589 0.64665461 0.75176382 nan
-0.040899027 0.068604819 -0.69 0.082385391 0.66466469 0.74258572 nan
-0.039579704 0.068604819 -0.69 0.06537874 0.67896158 0.7312569 nan
-0.038260382 0.068604819 -0.69 0.05934459 0.68983221 0.72153294 nan
-0.036941059 0.068604819 -0.69 0.046753641 0.69459319 0.71788186 nan
-0.035621736 0.068604819 -0.69 0.046889652 0.69574106 0.71676058 nan
-0.03430241 0.068604819 -0.69 0.036737032 0.69582462 0.71727151 nan
-0.032983087 0.068604819 -0.69 0.052534219 0.66564083 0.74442095 nan
-0.031709652 0.068704247 -0.69099998 0.066115588 0.63670778 0.7682656 nan
-0.030388419 0.068704247 -0.69099998 0.056066234 0.58122015 0.81181258 nan
-0.029067183 0.068704247 -0.69099998 0.065151334 0.44053161 0.89536989 nan
-0.027745947 0.068704247 -0.69099998 -0.020342352 0.41171691 0.91108471 nan
-0.026424712 0.068704247 -0.69099998 -0.078199171 0.27378884 0.95860553 nan
-0.025067147 0.068604819 -0.69 -0.090735905 0.18145563 0.97920418 nan
-0.072562791 0.0672855 -0.69 -0.1718825 0.63067496 0.75677311 nan
-0.071243472 0.0672855 -0.69 -0.1054484 0.58033961 0.80751878 nan
-0.069924146 0.0672855 -0.69 -0.06386067 0.63857692 0.7669037 nan
-0.068604819 0.0672855 -0.69 -0.089356244 0.62574279 0.77489448 nan
-0.0672855 0.0672855 -0.69 -0.095874645 0.64561617 0.75761974 nan
-0.065966174 0.0672855 -0.69 -0.10674307 0.63718182 0.76328582 nan
-0.064553164 0.067187987 -0.68900001 -0.10074648 0.66201621 0.74268746 nan
-0.063235752 0.067187987 -0.68900001 -0.11822136 0.65124518 0.74960214 nan
-0.061738603 0.066992953 -0.68699998 -0.12356597 0.64941561 0.75032711 nan
-0.060425013 0.066992953 -0.68699998 -0.090516612 0.65469563 0.75045347 nan
-0.059111428 0.066992953 -0.68699998 -0.065086387 0.65584469 0.75208467 nan
-0.057966106 0.067187987 -0.68900001 -0.046894234 0.65733188 0.75214082 nan
-0.056484252 0.066992953 -0.68699998 -0.03413412 0.65136969 0.75799233 nan
-0.05509036 0.06689544 -0.68599999 -0.034415949 0.64581716 0.76271605 nan
-0.053778686 0.06689544 -0.68599999 0.0028721173 0.64044231 0.76800084 nan
-0.052543491 0.066992953 -0.68699998 0.027305333 0.63668227 0.7706427 nan
-0.051229905 0.066992953 -0.68699998 0.060312487 0.62940323 0.77473468 nan
-0.049916316 0.066992953 -0.68699998 0.10681009 0.62689102 0.77175087 nan
-0.048531983 0.06689544 -0.68599999 0.11522771 0.62488878 0.77216363 nan
-0.047289141 0.066992953 -0.68699998 0.11880438 0.61832303 0.7768926 nan
-0.046109401 0.067187987 -0.68900001 0.13045339 0.61281651 0.77938294 nan
-0.044791989 0.067187987 -0.68900001 0.10877606 0.61028475 0.78467858 nan
-0.043474577 0.067187987 -0.68900001 0.091043316 0.61863536 0.78038543 nan
-0.042157166 0.067187987 -0.68900001 0.094340377 0.63512677 0.76662493 nan
-0.040839754 0.067187987 -0.68900001 0.055066582 0.65297621 0.7553739 nan
-0.039579704 0.0672855 -0.69 0.043690916 0.66512805 0.74545002 nan
-0.038260382 0.0672855 -0.69 0.043257553 0.67278284 0.73857433 nan
-0.036887523 0.067187987 -0.68900001 0.037935536 0.67777538 0.73428965 nan
-0.035570111 0.067187987 -0.68900001 0.050748482 0.67891741 0.73245877 nan
-0.03430241 0.0672855 -0.69 0.04461303 0.67137361 0.73977506 nan
-0.032935288 0.067187987 -0.68900001 0.061469957 0.69960672 0.71187907 nan
-0.031663764 0.0672855 -0.69 0.13242511 0.68653673 0.71493429 nan
-0.030300464 0.067187987 -0.68900001 0.12902956 0.6212548 0.77291262 nan
-0.029025117 0.0672855 -0.69 0.20583804 0.50781476 0.83651352 nan
-0.027705794 0.0672855 -0.69 0.12855463 0.34209758 0.93082917 nan
-0.02638647 0.0672855 -0.69 0.081797294 0.1635091 0.983145 nan
-0.025067147 0.0672855 -0.69 -0 0.093499333 0.9956193 nan
-0.072562791 0.065966174 -0.69 -0.19353308 0.72580755 0.66011238 nan
-0.071140222 0.065870576 -0.68900001 -0.09505564 0.66614544 0.73973954 nan
-0.069822811 0.065870576 -0.68900001 -0.069047421 0.69108117 0.71947151 nan
-0.068604819 0.065966174 -0.69 -0.071993686 0.65639162 0.75097728 nan
-0.067187987 0.065870576 -0.68900001 -0.09745387 0.67348963 0.7327444 nan
-0.065870576 0.065870576 -0.68900001 -0.096004814 0.66103405 0.74418885 nan
-0.064553164 0.065870576 -0.68900001 -0.10266498 0.65151393 0.75165796 nan
-0.063052192 0.065679364 -0.68699998 -0.11954241 0.64539909 0.75443327 nan
-0.061648738 0.065583766 -0.68599999 -0.12713139 0.64463103 0.75384915 nan
-0.060425013 0.065679364 -0.68699998 -0.091578268 0.64751679 0.7565285 nan
-0.059025384 0.065583766 -0.68599999 -0.065600775 0.65143722 0.75586098 nan
-0.057797842 0.065679364 -0.68699998 -0.039434787 0.65348101 0.75591499 nan
-0.056402035 0.065583766 -0.68599999 -0.021168154 0.64905417 0.76044768 nan
-0.054929748 0.065392561 -0.68400002 -0.015921693 0.64510769 0.76392567 nan
-0.053778686 0.065583766 -0.68599999 0.0273013 0.63783419 0.76968962 nan
-0.052467011 0.065583766 -0.68599999 0.046715669 0.63056695 0.77472758 nan
-0.051155336 0.065583766 -0.68599999 0.068996884 0.62591773 0.77683109 nan
-0.049916316 0.065679364 -0.68699998 0.11283687 0.62481284 0.77257788 nan
-0.048531983 0.065583766 -0.68599999 0.12993756 0.61927909 0.77434474 nan
-0.047289141 0.065679364 -0.68699998 0.13417989 0.60931861 0.78149003 nan
-0.045975555 0.065679364 -0.68699998 0.1404961 0.60384482 0.78462237 nan
-0.044661969 0.065679364 -0.68699998 0.10462011 0.60189044 0.79169601 nan
-0.043474577 0.065870576 -0.68900001 0.07580696 0.6074059 0.79076624 nan
-0.042157166 0.065870576 -0.68900001 0.072093546 0.61540914 0.78490388 nan
-0.040839754 0.065870576 -0.68900001 0.029710442 0.62949222 0.77643859 nan
-0.039522342 0.065870576 -0.68900001 0.029394316 0.63982981 0.76795441 nan
-0.038204934 0.065870576 -0.68900001 0.037396092 0.6426115 0.765279 nan
-0.036887523 0.065870576 -0.68900001 0.037411459 0.64247555 0.76539248 nan
-0.035570111 0.065870576 -0.68900001 0.053750984 0.64082432 0.76580352 nan
-0.034252699 0.065870576 -0.68900001 0.064296074 0.62871987 0.77496922 nan
-0.032839682 0.065679364 -0.68699998 0.068204798 0.67425776 0.73533976 nan
-0.031617876 0.065870576 -0.68900001 0.20046608 0.65312427 0.73023432 nan
-0.030212507 0.065679364 -0.68699998 0.21155353 0.68176675 0.70031369 nan
-0.028983053 0.065870576 -0.68900001 0.35125944 0.57481396 0.73905736 nan
-0.027705794 0.065966174 -0.69 0.25936079 0.41898486 0.87016302 nan
-0.026348229 0.065870576 -0.68900001 0.16537102 0.082672179 0.98276025 nan
-0.025067147 0.065966174 -0.69 0.18515182 0.092508875 0.97834605 nan
-0.072457634 0.064553164 -0.68900001 -0.37668598 0.70623058 0.59945464 nan
-0.070933715 0.064365774 -0.68699998 -0.052884903 0.71551108 0.6965968 nan
-0.06951879 0.064272083 -0.68599999 -0.08688987 0.72413182 0.68416607 nan
-0.068306535 0.064365774 -0.68699998 -0.071011923 0.75191271 0.65542704 nan
-0.066992953 0.064365774 -0.68699998 -0.10506815 0.71010476 0.69621265 nan
-0.065679364 0.064365774 -0.68699998 -0.12144604 0.6792233 0.72381389 nan
-0.064365774 0.064365774 -0.68699998 -0.10807432 0.66091561 0.7426374 nan
-0.063052192 0.064365774 -0.68699998 -0.1287386 0.62492865 0.7699939 nan
-0.061648738 0.064272083 -0.68599999 -0.12738524 0.61357409 0.77929449 nan
-0.060337063 0.064272083 -0.68599999 -0.09578526 0.61421961 0.78330046 nan
-0.058853302 0.064084709 -0.68400002 -0.071306251 0.61820644 0.78277469 nan
-0.05771371 0.064272083 -0.68599999 -0.038510233 0.62073028 0.78307778 nan
-0.056237601 0.064084709 -0.68400002 -0.016501725 0.62204474 0.78280771 nan
-0.054929748 0.064084709 -0.68400002 -0.010956342 0.61919302 0.78516239 nan
-0.053621899 0.064084709 -0.68400002 0.033632528 0.61737955 0.78594619 nan
-0.052314047 0.064084709 -0.68400002 0.050417013 0.61593378 0.786183 nan
-0.051006194 0.064084709 -0.68400002 0.070008345 0.61585605 0.78474206 nan
-0.049843658 0.064272083 -0.68599999 0.11701893 0.61627114 0.77879167 nan
-0.048390493 0.064084709 -0.68400002 0.14181247 0.61498219 0.7756843 nan
-0.047220308 0.064272083 -0.68599999 0.14544255 0.60977989 0.77911162 nan
-0.045975555 0.064365774 -0.68699998 0.14567034 0.60791713 0.78052348 nan
-0.044661969 0.064365774 -0.68699998 0.1069157 0.60791594 0.78677016 nan
-0.043348379 0.064365774 -0.68699998 0.070614725 0.60533124 0.79283524 nan
-0.042034794 0.064365774 -0.68699998 0.05891116 0.60861778 0.79127353 nan
-0.040721204 0.064365774 -0.68699998 0.013725668 0.61473536 0.78861398 nan
-0.039407618 0.064365774 -0.68699998 0.022226334 0.61634642 0.78716141 nan
-0.038204934 0.064553164 -0.68900001 0.041773777 0.61629933 0.7864033 nan
-0.036780443 0.064365774 -0.68699998 0.044717316 0.61287802 0.78891128 nan
-0.035466857 0.064365774 -0.68699998 0.070305362 0.60749394 0.79120684 nan
-0.034153268 0.064365774 -0.68699998 0.1059368 0.59229517 0.79872638 nan
-0.032791883 0.064272083 -0.68599999 0.10232692 0.63055396 0.7693705 nan
-0.031480204 0.064272083 -0.68599999 0.29326245 0.57447892 0.76417994 nan
-0.030212507 0.064365774 -0.68699998 0.30468011 0.63001084 0.71432227 nan
-0.028983053 0.064553164 -0.68900001 0.49102741 0.50157315 0.71226144 nan
-0.027665641 0.064553164 -0.68900001 0.40881792 0.55632544 0.72344315 nan
-0.026348229 0.064553164 -0.68900001 0.40818086 0.22277865 0.88530111 nan
-0.025030818 0.064553164 -0.68900001 0.27613318 0 0.96111941 nan
-0.072142139 0.062960409 -0.68599999 -0.33098215 0.66154617 0.67290968 nan
-0.070830464 0.062960409 -0.68599999 -0.12194967 0.60872805 0.78395063 nan
-0.069316112 0.062776856 -0.68400002 -0.16487195 0.68835133 0.70639205 nan
-0.068207115 0.062960409 -0.68599999 -0.12259593 0.71331453 0.69003797 nan
-0.06689544 0.062960409 -0.68599999 -0.11780308 0.71222872 0.69199187 nan
-0.065392561 0.062776856 -0.68400002 -0.11580885 0.65764707 0.74437135 nan
-0.064272083 0.062960409 -0.68599999 -0.12029001 0.63457423 0.76344353 nan
-0.062776856 0.062776856 -0.68400002 -0.1338308 0.59414303 0.79314774 nan
-0.061469004 0.062776856 -0.68400002 -0.1322152 0.58289951 0.80171514 nan
-0.060161155 0.062776856 -0.68400002 -0.096651174 0.58358622 0.80627894 nan
-0.058853302 0.062776856 -0.68400002 -0.074161403 0.58578396 0.80706716 nan
-0.05754545 0.062776856 -0.68400002 -0.042923708 0.58820611 0.80757111 nan
-0.056237601 0.062776856 -0.68400002 -0.017142214 0.59321189 0.80486381 nan
-0.054849442 0.06268508 -0.68300003 -0.0056386776 0.59201878 0.80590439 nan
-0.053543504 0.06268508 -0.68300003 0.037704136 0.58798087 0.80799568 nan
-0.052237567 0.06268508 -0.68300003 0.052123457 0.58808136 0.80712044 nan
-0.050931625 0.06268508 -0.68300003 0.069503933 0.58801681 0.805857 nan
-0.049698345 0.062776856 -0.68400002 0.11527841 0.58875722 0.80004746 nan
-0.048390493 0.062776856 -0.68400002 0.14269619 0.59433448 0.791457 nan
-0.04708264 0.062776856 -0.68400002 0.14812607 0.59552938 0.78955895 nan
-0.045908634 0.062960409 -0.68599999 0.14807804 0.59534442 0.78970736 nan
-0.044596959 0.062960409 -0.68599999 0.11440345 0.59506053 0.79549652 nan
-0.043285284 0.062960409 -0.68599999 0.077581696 0.59246427 0.80185241 nan
-0.042034794 0.063052192 -0.68699998 0.057329625 0.59257358 0.80347365 nan
-0.040721204 0.063052192 -0.68699998 0.017050169 0.59738684 0.801772 nan
-0.039407618 0.063052192 -0.68699998 0.028805731 0.59400541 0.80394518 nan
-0.038094033 0.063052192 -0.68699998 0.046173945 0.59216285 0.80449438 nan
-0.036780443 0.063052192 -0.68699998 0.055117175 0.58664036 0.80796975 nan
-0.035466857 0.063052192 -0.68699998 0.087739773 0.57505006 0.81339973 nan
-0.034103557 0.062960409 -0.68599999 0.14313003 0.55303037 0.82077479 nan
-0.032791883 0.062960409 -0.68599999 0.15662223 0.58518547 0.79563016 nan
-0.031480204 0.062960409 -0.68599999 0.39068568 0.49523228 0.77595723 nan
-0.030168531 0.062960409 -0.68599999 0.41834486 0.51690489 0.746858 nan
-0.028983053 0.063235752 -0.68900001 0.6043815 0.37114298 0.70496523 nan
-0.027665641 0.063235752 -0.68900001 0.54984933 0.50411081 0.6659866 nan
-0.026348229 0.063235752 -0.68900001 0.63762182 0.27332014 0.72023225 nan
-0.070623964 0.061469004 -0.68400002 -0.25552538 0.51046234 0.82105726 nan
-0.069316112 0.061469004 -0.68400002 -0.24472898 0.60266072 0.75954443 nan
-0.068008259 0.061469004 -0.68400002 -0.22438388 0.59677893 0.77039397 nan
-0.066700406 0.061469004 -0.68400002 -0.14285561 0.65475416 0.74221903 nan
-0.065296955 0.061379138 -0.68300003 -0.12400609 0.60700035 0.78496695 nan
-0.064084709 0.061469004 -0.68400002 -0.13446134 0.5975548 0.79047358 nan
-0.062776856 0.061469004 -0.68400002 -0.12957926 0.5541116 0.82229531 nan
-0.061469004 0.061469004 -0.68400002 -0.13437024 0.54919052 0.82482386 nan
-0.060161155 0.061469004 -0.68400002 -0.097256429 0.55149561 0.82848889 nan
-0.058767259 0.061379138 -0.68300003 -0.076995932 0.55154252 0.8305856 nan
-0.057461321 0.061379138 -0.68300003 -0.04764862 0.55189115 0.83255374 nan
-0.056155384 0.061379138 -0.68300003 -0.020899024 0.55349785 0.83258837 nan
-0.054849442 0.061379138 -0.68300003 6.9017937e-05 0.5544306 0.83222991 nan
-0.053543504 0.061379138 -0.68300003 0.045087337 0.55355924 0.83158839 nan
-0.052237567 0.061379138 -0.68300003 0.053769059 0.55941743 0.82714027 nan
-0.050931625 0.061379138 -0.68300003 0.071695745 0.5593459 0.82582796 nan
-0.049625687 0.061379138 -0.68300003 0.11009119 0.56047368 0.82082224 nan
-0.04831975 0.061379138 -0.68300003 0.13542137 0.56877822 0.81126595 nan
-0.04708264 0.061469004 -0.68400002 0.14916646 0.57338428 0.80559289 nan
-0.045774791 0.061469004 -0.68400002 0.15455873 0.57467294 0.8036558 nan
-0.044466939 0.061469004 -0.68400002 0.11969583 0.57799864 0.80721158 nan
-0.04315909 0.061469004 -0.68400002 0.078770936 0.58080655 0.81022149 nan
-0.041851237 0.061469004 -0.68400002 0.052330047 0.58271426 0.81099051 nan
-0.040543385 0.061469004 -0.68400002 0.011592134 0.5875482 0.80910611 nan
-0.039235536 0.061469004 -0.68400002 0.032334931 0.58057332 0.81356555 nan
-0.038038582 0.061648738 -0.68599999 0.056115985 0.57495314 0.81625974 nan
-0.036619831 0.061469004 -0.68400002 0.074528314 0.5633269 0.82286596 nan
-0.035311982 0.061469004 -0.68400002 0.11739156 0.54633069 0.82930219 nan
-0.033904701 0.061289269 -0.68199998 0.19681272 0.51006204 0.83731794 nan
-0.032600675 0.061289269 -0.68199998 0.20916928 0.53831339 0.8163743 nan
-0.031296648 0.061289269 -0.68199998 0.48957306 0.40684119 0.77123183 nan
-0.0300366 0.061379138 -0.68300003 0.52481586 0.41648895 0.74236459 nan
-0.028730661 0.061379138 -0.68300003 0.66923964 0.30890593 0.67579246 nan
-0.027464874 0.061469004 -0.68400002 0.67827594 0.38336536 0.62687534 nan
-0.026348229 0.061918341 -0.68900001 0.77175868 0.15959258 0.61556381 nan
-0.070623964 0.060161155 -0.68400002 -0.45770738 0.29394761 0.83910596 nan
-0.069214776 0.060073201 -0.68300003 -0.33902106 0.46320626 0.8188436 nan
-0.067809403 0.059985243 -0.68199998 -0.32613453 0.45351228 0.82943523 nan
-0.066505373 0.059985243 -0.68199998 -0.21582891 0.53432441 0.8172608 nan
-0.065010145 0.059809335 -0.68000001 -0.1548306 0.50638443 0.84829372 nan
-0.063709944 0.059809335 -0.68000001 -0.14315292 0.53863239 0.8302905 nan
-0.06240974 0.059809335 -0.68000001 -0.13738982 0.49111515 0.86019176 nan
-0.061289269 0.059985243 -0.68199998 -0.14363551 0.50038582 0.85380489 nan
-0.059985243 0.059985243 -0.68199998 -0.0983527 0.50957471 0.85478669 nan
-0.058681212 0.059985243 -0.68199998 -0.073996864 0.51182657 0.85589606 nan
-0.057208929 0.059809335 -0.68000001 -0.043585915 0.50751603 0.86053926 nan
-0.055908725 0.059809335 -0.68000001 -0.018764816 0.50888884 0.86062771 nan
-0.054769132 0.059985243 -0.68199998 -0.0031143571 0.51176524 0.85911971 nan
-0.053308319 0.059809335 -0.68000001 0.034187276 0.51711398 0.85523355 nan
-0.052008115 0.059809335 -0.68000001 0.046204727 0.52789605 0.84805119 nan
-0.050707914 0.059809335 -0.68000001 0.070915259 0.52790046 0.84634042 nan
-0.049553026 0.059985243 -0.68199998 0.1040975 0.53352273 0.83935529 nan
-0.048248999 0.059985243 -0.68199998 0.1270377 0.54479772 0.82888895 nan
-0.046944972 0.059985243 -0.68199998 0.14396982 0.55174303 0.82149398 nan
-0.045640945 0.059985243 -0.68199998 0.14926194 0.55509907 0.81828225 nan
-0.044336919 0.059985243 -0.68199998 0.11311919 0.56222022 0.81921458 nan
-0.043095991 0.060073201 -0.68300003 0.0744076 0.56487459 0.82181513 nan
-0.041790053 0.060073201 -0.68300003 0.047449183 0.56864464 0.8212136 nan
-0.040484112 0.060073201 -0.68300003 0.020971719 0.5663588 0.82389194 nan
-0.039178174 0.060073201 -0.68300003 0.051598571 0.55094153 0.83294719 nan
-0.037872236 0.060073201 -0.68300003 0.076164529 0.54456872 0.83525079 nan
-0.036512755 0.059985243 -0.68199998 0.1021218 0.52323538 0.84604716 nan
-0.035105478 0.059809335 -0.68000001 0.15308194 0.50140452 0.85156298 nan
-0.033805277 0.059809335 -0.68000001 0.26412642 0.43694538 0.85983479 nan
-0.032505073 0.059809335 -0.68000001 0.28069052 0.46881953 0.83750886 nan
-0.031296648 0.059985243 -0.68199998 0.56411523 0.32898882 0.75732446 nan
-0.029992621 0.059985243 -0.68199998 0.59275794 0.35689983 0.72198379 nan
-0.028688593 0.059985243 -0.68199998 0.74639195 0.13298331 0.65208459 nan
-0.027464874 0.060161155 -0.68400002 0.78484845 0.17441012 0.59463769 nan
-0.026157023 0.060161155 -0.68400002 0.78943509 -0.081488401 0.608401 nan
-0.025030818 0.060600929 -0.68900001 0.7650907 0 0.64392245 nan
-0.071826652 0.058767259 -0.68300003 -0.34188798 0.085430257 0.93584949 nan
-0.070520714 0.058767259 -0.68300003 -0.51098317 0.068017118 0.85689545 nan
-0.069113433 0.058681212 -0.68199998 -0.46841612 0.24338455 0.84932345 nan
-0.067809403 0.058681212 -0.68199998 -0.43881866 0.20045015 0.87593257 nan
-0.066310346 0.05850913 -0.68000001 -0.27871233 0.39129877 0.87704313 nan
-0.065010145 0.05850913 -0.68000001 -0.20798175 0.36816162 0.90620118 nan
-0.063616253 0.058423087 -0.67900002 -0.18027206 0.42441604 0.88734043 nan
-0.06231796 0.058423087 -0.67900002 -0.16593629 0.39950874 0.90158629 nan
-0.061109535 0.05850913 -0.68000001 -0.15696266 0.43755955 0.88538378 nan
-0.05972138 0.058423087 -0.67900002 -0.11251159 0.45192766 0.88493079 nan
-0.05850913 0.05850913 -0.68000001 -0.074141614 0.46002984 0.88480252 nan
-0.057124797 0.058423087 -0.67900002 -0.042293705 0.45483425 0.88957125 nan
-0.055908725 0.05850913 -0.68000001 -0.026056631 0.45815733 0.88848907 nan
-0.05460852 0.05850913 -0.68000001 -0.0097951544 0.45888546 0.88844144 nan
-0.053308319 0.05850913 -0.68000001 0.025889102 0.46480384 0.88503504 nan
-0.052008115 0.05850913 -0.68000001 0.041700263 0.47939795 0.87660635 nan
-0.050633345 0.058423087 -0.67900002 0.067281224 0.48418391 0.87237567 nan
-0.049407709 0.05850913 -0.68000001 0.089041986 0.49310708 0.86539984 nan
-0.048107509 0.05850913 -0.68000001 0.11314238 0.50592285 0.85512626 nan
-0.046944972 0.058681212 -0.68199998 0.14016594 0.51352662 0.84654826 nan
-0.045640945 0.058681212 -0.68199998 0.14878614 0.51719427 0.84283608 nan
-0.044206899 0.05850913 -0.68000001 0.1141827 0.5268234 0.84227026 nan
-0.043032892 0.058681212 -0.68199998 0.074389063 0.52540505 0.84759414 nan
-0.041728862 0.058681212 -0.68199998 0.052794635 0.52533138 0.8492583 nan
-0.040484112 0.058767259 -0.68300003 0.04095212 0.51438665 0.85658002 nan
-0.039178174 0.058767259 -0.68300003 0.070366532 0.4918375 0.86783886 nan
-0.037816782 0.058681212 -0.68199998 0.10325754 0.47475964 0.87403727 nan
-0.036405683 0.05850913 -0.68000001 0.14374812 0.44896078 0.88191313 nan
-0.035105478 0.05850913 -0.68000001 0.1970115 0.42561677 0.88319701 nan
-0.033805277 0.05850913 -0.68000001 0.32531103 0.35736495 0.87547868 nan
-0.032600675 0.058681212 -0.68199998 0.36212343 0.39133787 0.84600306 nan
-0.031296648 0.058681212 -0.68199998 0.6506443 0.13147292 0.74791509 nan
-0.0300366 0.058767259 -0.68300003 0.68233651 0.15512674 0.71438968 nan
-0.028730661 0.058767259 -0.68300003 0.7620011 -0.13391128 0.6335789 nan
-0.027464874 0.058853302 -0.68400002 0.8089568 -0.11777788 0.57594895 nan
-0.026233505 0.059025384 -0.68599999 0.77068061 -0.19267154 0.60739529 nan
-0.025030818 0.059283517 -0.68900001 0.6601426 -0.14641432 0.73673242 nan
-0.023747824 0.059369557 -0.69 0.27533963 -0.18342124 0.94368672 nan
-0.073239662 0.05754545 -0.68400002 -0.64332765 -0.40946144 0.64689326 nan
-0.071826652 0.057461321 -0.68300003 -0.53006482 -0.1514006 0.83433151 nan
-0.070520714 0.057461321 -0.68300003 -0.53629243 -0.16752476 0.82723993 nan
-0.069113433 0.057377186 -0.68199998 -0.50662923 -0.019475423 0.86194402 nan
-0.067610554 0.057208929 -0.68000001 -0.47493231 -0.11532333 0.8724333 nan
-0.066310346 0.057208929 -0.68000001 -0.38044879 0.1206563 0.91689736 nan
-0.065010145 0.057208929 -0.68000001 -0.28327453 0.16993761 0.94386268 nan
-0.063616253 0.057124797 -0.67900002 -0.23115429 0.30931592 0.92243767 nan
-0.06231796 0.057124797 -0.67900002 -0.20027676 0.28045782 0.9387399 nan
-0.06101967 0.057124797 -0.67900002 -0.18301606 0.33109492 0.92567885 nan
-0.05972138 0.057124797 -0.67900002 -0.12969634 0.35028136 0.92762154 nan
-0.058423087 0.057124797 -0.67900002 -0.078706294 0.36822045 0.92640108 nan
-0.057124797 0.057124797 -0.67900002 -0.041287825 0.37032223 0.92798543 nan
-0.055826508 0.057124797 -0.67900002 -0.024091205 0.37679312 0.92598408 nan
-0.054528218 0.057124797 -0.67900002 -0.010323561 0.38583419 0.92251033 nan
-0.053229924 0.057124797 -0.67900002 0.010101593 0.39480737 0.91870838 nan
-0.051931635 0.057124797 -0.67900002 0.023450999 0.41413498 0.90991324 nan
-0.050633345 0.057124797 -0.67900002 0.056779403 0.42773575 0.9021188 nan
-0.049335051 0.057124797 -0.67900002 0.0796609 0.43796533 0.89545542 nan
-0.048036762 0.057124797 -0.67900002 0.10501961 0.45266169 0.88547629 nan
-0.046807304 0.057208929 -0.68000001 0.13638783 0.46388599 0.87533325 nan
-0.045440178 0.057124797 -0.67900002 0.14255279 0.46581578 0.87332362 nan
-0.044141889 0.057124797 -0.67900002 0.11308705 0.47372273 0.8733831 nan
-0.042906694 0.057208929 -0.68000001 0.084517397 0.46931896 0.87897474 nan
-0.041606493 0.057208929 -0.68000001 0.068786174 0.46195859 0.88422996 nan
-0.040424835 0.057377186 -0.68199998 0.072889931 0.44683093 0.89164406 nan
-0.039120808 0.057377186 -0.68199998 0.11427492 0.41750517 0.90146029 nan
-0.037705883 0.057208929 -0.68000001 0.14312808 0.38657767 0.91108298 nan
-0.036405683 0.057208929 -0.68000001 0.17510991 0.36249998 0.91538531 nan
-0.035105478 0.057208929 -0.68000001 0.2330142 0.34160167 0.91050124 nan
-0.033805277 0.057208929 -0.68000001 0.32531688 0.30447853 0.89524394 nan
-0.032505073 0.057208929 -0.68000001 0.55139023 0.11921983 0.82568485 nan
-0.031296648 0.057377186 -0.68199998 0.60389 0.12960401 0.78646022 nan
-0.0300366 0.057461321 -0.68300003 0.72122574 -0.10706554 0.68437588 nan
-0.028730661 0.057461321 -0.68300003 0.74222845 -0.11125304 0.66084766 nan
-0.02754518 0.05771371 -0.68599999 0.74350899 -0.17817609 0.64455223 nan
-0.026271746 0.057797842 -0.68699998 0.7667836 -0.18791768 0.61378324 nan
-0.025030818 0.057966106 -0.68900001 0.59159064 -0.13911746 0.79414546 nan
-0.023747824 0.058050234 -0.69 0.42717114 -0.25641423 0.86705053 nan
-0.0224285 0.058050234 -0.69 0.47369453 -0.39508057 0.787099 nan
-0.074874476 0.056484252 -0.68699998 -0.73485518 -0.48996565 0.46895781 nan
-0.073453814 0.056402035 -0.68599999 -0.73940337 -0.41591164 0.52943379 nan
-0.071931817 0.056237601 -0.68400002 -0.61796504 -0.36526918 0.69620234 nan
-0.070520714 0.056155384 -0.68300003 -0.58048558 -0.32422599 0.74693638 nan
-0.069113433 0.056073159 -0.68199998 -0.53256905 -0.32387182 0.78197008 nan
-0.067809403 0.056073159 -0.68199998 -0.51887184 -0.18679607 0.83419377 nan
-0.066310346 0.055908725 -0.68000001 -0.42053369 -0.15573847 0.89381033 nan
-0.065010145 0.055908725 -0.68000001 -0.35011789 0.048688468 0.93543935 nan
-0.063616253 0.055826508 -0.67900002 -0.30966157 0.026317263 0.95048261 nan
-0.06231796 0.055826508 -0.67900002 -0.25669813 0.16491501 0.95231777 nan
-0.06101967 0.055826508 -0.67900002 -0.20949982 0.19475177 0.95821792 nan
-0.05972138 0.055826508 -0.67900002 -0.16100961 0.22107647 0.96187371 nan
-0.058423087 0.055826508 -0.67900002 -0.10071658 0.25070819 0.96280915 nan
-0.057124797 0.055826508 -0.67900002 -0.054081 0.26911843 0.96158749 nan
-0.055826508 0.055826508 -0.67900002 -0.046560932 0.2887997 0.95625663 nan
-0.054528218 0.055826508 -0.67900002 -0.03197819 0.31455719 0.94869965 nan
-0.053229924 0.055826508 -0.67900002 -0.0071560061 0.33377072 0.94262713 nan
-0.051931635 0.055826508 -0.67900002 0.0033780751 0.35201234 0.93598926 nan
-0.050633345 0.055826508 -0.67900002 0.041562341 0.36727595 0.92918295 nan
-0.04926239 0.055744283 -0.67799997 0.062147595 0.37596953 0.92454553 nan
-0.048036762 0.055826508 -0.67900002 0.086028829 0.38144657 0.92037898 nan
-0.046738472 0.055826508 -0.67900002 0.13370717 0.38323766 0.91392088 nan
-0.045440178 0.055826508 -0.67900002 0.15134002 0.37397593 0.91500711 nan
-0.044141889 0.055826508 -0.67900002 0.12435685 0.37165809 0.92000306 nan
-0.042843599 0.055826508 -0.67900002 0.10118578 0.35741585 0.92844778 nan
-0.041545309 0.055826508 -0.67900002 0.091648318 0.33953506 0.93611777 nan
-0.040306289 0.055908725 -0.68000001 0.1071045 0.30853885 0.94516265 nan
-0.039006088 0.055908725 -0.68000001 0.15860473 0.26903072 0.94998264 nan
-0.037705883 0.055908725 -0.68000001 0.18539573 0.23177989 0.95493793 nan
-0.036405683 0.055908725 -0.68000001 0.21203367 0.19680583 0.9572404 nan
-0.035105478 0.055908725 -0.68000001 0.2754575 0.17361102 0.94550639 nan
-0.033805277 0.055908725 -0.68000001 0.37465945 0.13783996 0.91685903 nan
-0.032600675 0.056073159 -0.68199998 0.58300549 -0.099187866 0.80639088 nan
-0.031296648 0.056073159 -0.68199998 0.63616222 -0.11005752 0.7636655 nan
-0.0300366 0.056155384 -0.68300003 0.71068555 -0.14220154 0.68898821 nan
-0.028772725 0.056237601 -0.68400002 0.73694247 -0.14140761 0.66099906 nan
-0.027464874 0.056237601 -0.68400002 0.74236315 -0.12722963 0.65780658 nan
-0.026271746 0.056484252 -0.68699998 0.72622776 -0.11925399 0.67703146 nan
-0.025067147 0.056730911 -0.69 0.68999761 -0.14166342 0.70981312 nan
-0.02378224 0.056813128 -0.69099998 0.48709616 -0.037368316 0.87254852 nan
-0.022461005 0.056813128 -0.69099998 0.39136669 -0.1564395 0.90683997 nan
-0.075201437 0.055411588 -0.69 -0.73792487 -0.41495505 0.53223979 nan
-0.073560886 0.055170666 -0.68699998 -0.73933947 -0.37005714 0.56252545 nan
-0.071931817 0.054929748 -0.68400002 -0.66875958 -0.38453901 0.63630992 nan
-0.070520714 0.054849442 -0.68300003 -0.58925062 -0.36851457 0.71901369 nan
-0.069113433 0.054769132 -0.68199998 -0.5533846 -0.36502054 0.74868262 nan
-0.067809403 0.054769132 -0.68199998 -0.54033577 -0.29812905 0.78686494 nan
-0.066310346 0.05460852 -0.68000001 -0.4342683 -0.31107727 0.84536499 nan
-0.065010145 0.05460852 -0.68000001 -0.39769536 -0.20384987 0.89458579 nan
-0.063616253 0.054528218 -0.67900002 -0.33937436 -0.17587791 0.92406279 nan
-0.06231796 0.054528218 -0.67900002 -0.30219027 -0.0033354238 0.95324177 nan
-0.06101967 0.054528218 -0.67900002 -0.24967431 0.043503147 0.96735221 nan
-0.05972138 0.054528218 -0.67900002 -0.19484144 0.069802873 0.97834778 nan
-0.058423087 0.054528218 -0.67900002 -0.13387567 0.10385633 0.98554105 nan
-0.057124797 0.054528218 -0.67900002 -0.085938029 0.13401401 0.9872461 nan
-0.055826508 0.054528218 -0.67900002 -0.077917546 0.17004488 0.98235112 nan
-0.054528218 0.054528218 -0.67900002 -0.062755339 0.19859795 0.97806984 nan
-0.053151526 0.054447904 -0.67799997 -0.033153053 0.22356269 0.9741255 nan
-0.051931635 0.054528218 -0.67900002 -0.014716545 0.24098627 0.97041702 nan
-0.050558768 0.054447904 -0.67799997 0.032743473 0.25845116 0.96546924 nan
-0.04926239 0.054447904 -0.67799997 0.069032118 0.26848695 0.96080667 nan
-0.048036762 0.054528218 -0.67900002 0.10553779 0.26160315 0.9593882 nan
-0.046738472 0.054528218 -0.67900002 0.1598589 0.25390667 0.95392686 nan
-0.045440178 0.054528218 -0.67900002 0.17494473 0.24003734 0.95486987 nan
-0.044141889 0.054528218 -0.67900002 0.15022692 0.23371929 0.96062851 nan
-0.042843599 0.054528218 -0.67900002 0.13693485 0.20643891 0.96883011 nan
-0.041545309 0.054528218 -0.67900002 0.1382201 0.17119662 0.97549319 nan
-0.040306289 0.05460852 -0.68000001 0.16557467 0.12387123 0.97838694 nan
-0.039006088 0.05460852 -0.68000001 0.21478108 0.07156729 0.97403651 nan
-0.037705883 0.05460852 -0.68000001 0.23732582 0.034001146 0.97083497 nan
-0.036352143 0.054528218 -0.67900002 0.25220519 -0.0036215622 0.96766704 nan
-0.035105478 0.05460852 -0.68000001 0.30815542 -0.033265822 0.95075423 nan
-0.033805277 0.05460852 -0.68000001 0.3987073 -0.060968451 0.91504937 nan
-0.032505073 0.05460852 -0.68000001 0.51852584 -0.070688985 0.852135 nan
-0.031296648 0.054769132 -0.68199998 0.64444107 -0.14188619 0.75137478 nan
-0.0300366 0.054849442 -0.68300003 0.67922884 -0.14963181 0.71851128 nan
-0.028772725 0.054929748 -0.68400002 0.70243877 -0.10357691 0.70416737 nan
-0.02754518 0.05509036 -0.68599999 0.72304839 -0.10641663 0.68255144 nan
-0.026271746 0.055170666 -0.68699998 0.74084228 -0.12687536 0.6595872 nan
-0.025067147 0.055411588 -0.69 0.67496866 -0.17131259 0.7176832 nan
-0.023747824 0.055411588 -0.69 0.56212658 -0.080200873 0.82315338 nan
-0.022461005 0.055491894 -0.69099998 0.45368177 -0.18864764 0.87096781 nan
-0.075201437 0.054092266 -0.69 -0.76472646 -0.18565951 0.61702842 nan
-0.073775046 0.054013871 -0.68900001 -0.73503143 -0.30236098 0.60688281 nan
-0.072142139 0.053778686 -0.68599999 -0.65443683 -0.32291484 0.68369478 nan
-0.070623964 0.053621899 -0.68400002 -0.5802477 -0.38017735 0.72026235 nan
-0.069214776 0.053543504 -0.68300003 -0.58907801 -0.33567363 0.73505801 nan
-0.067908838 0.053543504 -0.68300003 -0.48849282 -0.34206498 0.80272442 nan
-0.066505373 0.053465106 -0.68199998 -0.43923771 -0.31098717 0.8428269 nan
-0.065010145 0.053308319 -0.68000001 -0.40889403 -0.31302318 0.85721767 nan
-0.063616253 0.053229924 -0.67900002 -0.36199129 -0.27455989 0.89083058 nan
-0.06231796 0.053229924 -0.67900002 -0.33475354 -0.17758532 0.92542082 nan
-0.06101967 0.053229924 -0.67900002 -0.28323296 -0.15029693 0.94720101 nan
-0.05972138 0.053229924 -0.67900002 -0.22429857 -0.1210791 0.96696949 nan
-0.058423087 0.053229924 -0.67900002 -0.16859768 -0.089691214 0.98159575 nan
-0.057124797 0.053229924 -0.67900002 -0.12504479 -0.056672543 0.99053121 nan
-0.055744283 0.053151526 -0.67799997 -0.11749175 -0.015086335 0.9929592 nan
-0.054447904 0.053151526 -0.67799997 -0.091246665 0.011422026 0.99576288 nan
-0.053151526 0.053151526 -0.67799997 -0.053409066 0.041894093 0.99769348 nan
-0.051855147 0.053151526 -0.67799997 -0.034308251 0.068467699 0.99706334 nan
-0.050558768 0.053151526 -0.67799997 0.015228814 0.091313399 0.99570572 nan
-0.04926239 0.053151526 -0.67799997 0.064702071 0.10637613 0.99221861 nan
-0.047966011 0.053151526 -0.67799997 0.11008296 0.11368492 0.9873994 nan
-0.046669632 0.053151526 -0.67799997 0.16995107 0.11312175 0.97893828 nan
-0.045373254 0.053151526 -0.67799997 0.18851621 0.10913765 0.97598696 nan
-0.044141889 0.053229924 -0.67900002 0.17400247 0.10187866 0.97946095 nan
-0.042843599 0.053229924 -0.67900002 0.1783894 0.075771287 0.98103821 nan
-0.041545309 0.053229924 -0.67900002 0.18650447 0.041894682 0.98156041 nan
-0.040247016 0.053229924 -0.67900002 0.21667846 0.00018048163 0.97624302 nan
-0.039006088 0.053308319 -0.68000001 0.25693333 -0.045063175 0.96537787 nan
-0.037650436 0.053229924 -0.67900002 0.26744616 -0.067522041 0.96120411 nan
-0.036352143 0.053229924 -0.67900002 0.28469118 -0.085943632 0.95475894 nan
-0.035105478 0.053308319 -0.68000001 0.33839232 -0.11392513 0.9340834 nan
-0.033805277 0.053308319 -0.68000001 0.41870084 -0.14557132 0.8963809 nan
-0.032600675 0.053465106 -0.68199998 0.52799094 -0.16960561 0.83214146 nan
-0.031296648 0.053465106 -0.68199998 0.63999182 -0.17135948 0.74903041 nan
-0.0300366 0.053543504 -0.68300003 0.67310894 -0.11473786 0.7305885 nan
-0.028772725 0.053621899 -0.68400002 0.7026704 -0.086353891 0.70625579 nan
-0.02754518 0.053778686 -0.68599999 0.73439127 -0.089844674 0.67275351 nan
-0.026348229 0.054013871 -0.68900001 0.74963671 -0.13519405 0.64789456 nan
-0.025067147 0.054092266 -0.69 0.65907997 -0.14640203 0.73768562 nan
