# .PCD v0.7 - Point Cloud Data file format
VERSION 0.7
FIELDS x y z normal_x normal_y normal_z curvature
SIZE 4 4 4 4 4 4 4
TYPE F F F F F F F
COUNT 1 1 1 1 1 1 1
WIDTH 653
HEIGHT 1
VIEWPOINT 0 0 0 1 0 0 0
POINTS 653
DATA ascii
-0.33877361 0.046929676 -0.76700002 -0.37436715 0.22608095 0.89929789 nan
-0.33730707 0.046929676 -0.76700002 -0.41631979 0.31862327 0.85156155 nan
-0.33584049 0.046929676 -0.76700002 -0.49130085 -0.19697319 0.84842509 nan
-0.33350202 0.046807304 -0.76499999 -0.67505753 -0.15058392 0.72223389 nan
-0.30436221 0.046379004 -0.75800002 0.18107077 -0.18107103 0.9666574 nan
-0.30291286 0.046379004 -0.75800002 -0 -0.1716838 0.98515218 nan
-0.30146351 0.046379004 -0.75800002 0.41112775 0 0.91157776 nan
-0.30001417 0.046379004 -0.75800002 0.32369164 0 0.94616258 nan
-0.29935259 0.046501372 -0.75999999 0.27629429 0.11624655 0.9540168 nan
-0.29789943 0.046501372 -0.75999999 0.083522923 0.13916406 0.98674071 nan
-0.29644626 0.046501372 -0.75999999 0.096207924 0.17326745 0.98016441 nan
-0.29499307 0.046501372 -0.75999999 -0.0504678 0.30207977 0.95194584 nan
-0.29353991 0.046501372 -0.75999999 -0.038565557 0.36492729 0.93023694 nan
-0.29208675 0.046501372 -0.75999999 0.97954363 0.20082526 -0.012789227 nan
-0.29063359 0.046501372 -0.75999999 0.98340946 0.11952356 -0.13645495 nan
-0.28918043 0.046501372 -0.75999999 0.96627408 0.067579128 -0.24849069 nan
-0.28598344 0.047663908 -0.77899998 -0.13992274 0.74573994 0.65137815 nan
-0.28449395 0.047663908 -0.77899998 -0.11072273 0.66400206 0.73948741 nan
-0.28300446 0.047663908 -0.77899998 -0.067767516 0.30500531 0.94993645 nan
-0.28079221 0.047541536 -0.77700001 7.3928422e-05 0.46714097 0.88418281 nan
-0.27930653 0.047541536 -0.77700001 0.12201731 0.4392041 0.89006269 nan
-0.27853596 0.047663908 -0.77899998 0.024098696 0.47951391 0.8772034 nan
-0.27704647 0.047663908 -0.77899998 -0.1442993 0.53553593 0.83209324 nan
-0.27555695 0.047663908 -0.77899998 -0.20351157 0.51459521 0.83293152 nan
-0.27406746 0.047663908 -0.77899998 -0.2270501 0.55212289 0.80225223 nan
-0.27257797 0.047663908 -0.77899998 -0.23536858 0.53277457 0.81286699 nan
-0.27108848 0.047663908 -0.77899998 -0.22608206 0.54074758 0.81023383 nan
-0.26890683 0.047541536 -0.77700001 -0.16966738 0.55907375 0.81157225 nan
-0.26742116 0.047541536 -0.77700001 -0.10012106 0.57654315 0.81090921 nan
-0.26525095 0.047419164 -0.77499998 -0.031116763 0.58420509 0.81100935 nan
-0.26308841 0.047296792 -0.773 0.047430474 0.59139264 0.80498767 nan
-0.26161039 0.047296792 -0.773 0.14699008 0.60601521 0.78175402 nan
-0.26013234 0.047296792 -0.773 0.23820484 0.6140632 0.75245249 nan
-0.25932354 0.047419164 -0.77499998 0.30990189 0.60447425 0.7338745 nan
-0.2585071 0.047541536 -0.77700001 0.32584682 0.66557556 0.67144114 nan
-0.25768301 0.047663908 -0.77899998 0.35315728 0.71051413 0.60864586 nan
-0.25619349 0.047663908 -0.77899998 0.42893797 0.5894435 0.68452072 nan
-0.25503096 0.047725093 -0.77999997 0.44223812 0.60063618 0.66607934 nan
-0.25353956 0.047725093 -0.77999997 0.36580861 0.6718328 0.64406896 nan
-0.25204813 0.047725093 -0.77999997 0.39514542 0.68632942 0.61058342 nan
-0.25055674 0.047725093 -0.77999997 0.33909184 0.76868254 0.54235041 nan
-0.24970396 0.047847465 -0.78200001 0.42923617 0.78129184 0.45314381 nan
-0.24820873 0.047847465 -0.78200001 0.86843801 0.49549332 -0.017370369 nan
-0.2467135 0.047847465 -0.78200001 0.7986604 0.59859228 -0.061877161 nan
-0.24866763 0.048520513 -0.79299998 0.95972484 -0.17870964 -0.21677393 nan
-0.37935331 0.045937315 -0.77499998 -0.70268714 -0.067345895 0.70830446 nan
-0.37787145 0.045937315 -0.77499998 -0.70269537 -0.12125781 0.70108193 nan
-0.37638959 0.045937315 -0.77499998 -0.70976692 -0.15932994 0.68618149 nan
-0.37394026 0.045818768 -0.773 -0.70757329 -0.20515071 0.67620498 nan
-0.3719804 0.045759495 -0.77200001 -0.66414243 -0.29328665 0.68767565 nan
-0.37050429 0.045759495 -0.77200001 -0.53507161 -0.34951323 0.76911569 nan
-0.36902818 0.045759495 -0.77200001 -0.39378589 -0.36900929 0.84188181 nan
-0.36755207 0.045759495 -0.77200001 -0.37100634 -0.32090184 0.87142199 nan
-0.36512756 0.045640945 -0.76999998 -0.32854766 -0.26986262 0.90511358 nan
-0.36365527 0.045640945 -0.76999998 -0.33549827 -0.19517122 0.92160141 nan
-0.36218297 0.045640945 -0.76999998 -0.33887744 -0.1022755 0.93525493 nan
-0.36071068 0.045640945 -0.76999998 -0.33546656 -0.0099933688 0.94199908 nan
-0.35830534 0.045522399 -0.76800001 -0.31366694 0.070638746 0.94690186 nan
-0.35683686 0.045522399 -0.76800001 -0.2934756 0.14932024 0.94423276 nan
-0.35536841 0.045522399 -0.76800001 -0.22005631 0.24193014 0.9450106 nan
-0.35343912 0.045463126 -0.76700002 -0.11511295 0.32610336 0.9382993 nan
-0.35197258 0.045463126 -0.76700002 -0.053547971 0.39505044 0.91709745 nan
-0.35050604 0.045463126 -0.76700002 -0.017845249 0.44632664 0.89469224 nan
-0.34903947 0.045463126 -0.76700002 -0.036972627 0.47528327 0.87905556 nan
-0.34666657 0.045344576 -0.76499999 -0.082571276 0.47753513 0.87472415 nan
-0.34610638 0.045463126 -0.76700002 -0.092661709 0.48118564 0.87170768 nan
-0.34463981 0.045463126 -0.76700002 -0.046347775 0.44163775 0.89599556 nan
-0.34227839 0.045344576 -0.76499999 -0.0042134514 0.51611072 0.85651153 nan
-0.34170672 0.045463126 -0.76700002 -0.15726228 0.34260824 0.92622256 nan
-0.34024015 0.045463126 -0.76700002 -0.21203212 0.34737098 0.91344166 nan
-0.33789021 0.045344576 -0.76499999 -0.28325737 0.056521304 0.95737696 nan
-0.33730707 0.045463126 -0.76700002 -0.31804293 0.16708577 0.93323684 nan
-0.33496475 0.045344576 -0.76499999 -0.066298857 -0.49378568 0.86705256 nan
-0.33263016 0.04522603 -0.76300001 -0.0007511049 -0.76527441 0.64370364 nan
-0.3037121 0.045048207 -0.75999999 -0 0.16830812 0.98573446 nan
-0.30146351 0.044929657 -0.75800002 0.40801075 0.081647478 0.90931892 nan
-0.30080575 0.045048207 -0.75999999 0.27552396 0.045896757 0.96019793 nan
-0.29935259 0.045048207 -0.75999999 0.27171543 0.13576861 0.95275265 nan
-0.29789943 0.045048207 -0.75999999 0.13251691 0.13249542 0.98228526 nan
-0.29644626 0.045048207 -0.75999999 -0.12634556 0.17678146 0.97610712 nan
-0.29499307 0.045048207 -0.75999999 -0.052553013 0.1707271 0.98391581 nan
-0.29353991 0.045048207 -0.75999999 0.93401778 0.09591262 0.34410992 nan
-0.29208675 0.045048207 -0.75999999 0.98142111 0.14754292 0.12265362 nan
-0.29063359 0.045048207 -0.75999999 0.96139884 0.20249847 -0.1862969 nan
-0.28918043 0.045048207 -0.75999999 0.96664888 0.058127746 -0.24942169 nan
-0.29681337 0.04647078 -0.78399998 0.98683387 0.074969016 -0.14331287 nan
-0.28747293 0.046174411 -0.77899998 -0.3298406 0.49459854 0.80410045 nan
-0.28524923 0.046055865 -0.77700001 0.00017894231 0.54352605 0.8393923 nan
-0.28376356 0.046055865 -0.77700001 0.15034249 0.2253104 0.96261746 nan
-0.28227788 0.046055865 -0.77700001 0.038557611 0.38413379 0.92247194 nan
-0.28079221 0.046055865 -0.77700001 0.075382411 0.36450326 0.92814595 nan
-0.27930653 0.046055865 -0.77700001 0.024541605 0.4496181 0.89288366 nan
-0.27782086 0.046055865 -0.77700001 -0.15729715 0.54635715 0.822649 nan
-0.27704647 0.046174411 -0.77899998 -0.1973654 0.55414385 0.808685 nan
-0.27555695 0.046174411 -0.77899998 -0.22450843 0.57787704 0.78463626 nan
-0.27406746 0.046174411 -0.77899998 -0.22993137 0.58472252 0.77796614 nan
-0.27257797 0.046174411 -0.77899998 -0.22241363 0.57141149 0.78995001 nan
-0.27108848 0.046174411 -0.77899998 -0.21616612 0.5738703 0.78990197 nan
-0.26890683 0.046055865 -0.77700001 -0.16538376 0.5878703 0.7918691 nan
-0.26673278 0.045937315 -0.77499998 -0.097051859 0.60677564 0.78892601 nan
-0.26525095 0.045937315 -0.77499998 -0.017414562 0.62156641 0.78316796 nan
-0.26308841 0.045818768 -0.773 0.056063276 0.63268095 0.77238065 nan
-0.26127195 0.045759495 -0.77200001 0.14260748 0.63657761 0.75791299 nan
-0.26013234 0.045818768 -0.773 0.23674901 0.64122009 0.72992235 nan
-0.25865433 0.045818768 -0.773 0.31657395 0.63154024 0.70776963 nan
-0.25717631 0.045818768 -0.773 0.35431352 0.62250412 0.69781852 nan
-0.25635985 0.045937315 -0.77499998 0.4150801 0.63616222 0.65038931 nan
-0.25487798 0.045937315 -0.77499998 0.40998954 0.62244511 0.6666863 nan
-0.25405008 0.046055865 -0.77700001 0.39018837 0.63390863 0.66776711 nan
-0.25321451 0.046174411 -0.77899998 0.41308188 0.64624333 0.64166415 nan
-0.25204813 0.046233684 -0.77999997 0.15240614 0.64958805 0.74485421 nan
-0.2502355 0.046174411 -0.77899998 0.15022452 0.68985707 0.70818782 nan
-0.24906532 0.046233684 -0.77999997 0.028893583 0.60392785 0.79651505 nan
-0.24757391 0.046233684 -0.77999997 -0.13450646 0.47046775 0.87210554 nan
-0.24576703 0.046174411 -0.77899998 0.96796632 0.20063707 -0.15094981 nan
-0.37935331 0.044455465 -0.77499998 -0.68478268 -0.047453068 0.72720069 nan
-0.37787145 0.044455465 -0.77499998 -0.68763274 -0.11002462 0.71767384 nan
-0.37541828 0.044340741 -0.773 -0.69372988 -0.16532329 0.70100439 nan
-0.37394026 0.044340741 -0.773 -0.6872384 -0.23302998 0.68804103 nan
-0.3719804 0.044283383 -0.77200001 -0.6507861 -0.3277919 0.68485761 nan
-0.37098423 0.044340741 -0.773 -0.53345913 -0.44387934 0.71999478 nan
-0.36902818 0.044283383 -0.77200001 -0.40619043 -0.49728557 0.7666266 nan
-0.36755207 0.044283383 -0.77200001 -0.38995719 -0.47094044 0.79129535 nan
-0.36512756 0.044168655 -0.76999998 -0.36119896 -0.43671393 0.82390314 nan
-0.36365527 0.044168655 -0.76999998 -0.38287053 -0.36926338 0.84679079 nan
-0.36218297 0.044168655 -0.76999998 -0.40035731 -0.27784392 0.87322211 nan
-0.36071068 0.044168655 -0.76999998 -0.40168303 -0.18597871 0.89669549 nan
-0.35830534 0.044053935 -0.76800001 -0.38565812 -0.094506897 0.9177888 nan
-0.35683686 0.044053935 -0.76800001 -0.36867267 -0.014655026 0.92944378 nan
-0.35490569 0.043996572 -0.76700002 -0.30188188 0.068840906 0.95085657 nan
-0.35343912 0.043996572 -0.76700002 -0.19532201 0.1535171 0.96864957 nan
-0.35197258 0.043996572 -0.76700002 -0.1215614 0.24507299 0.96185338 nan
-0.34959203 0.043881848 -0.76499999 -0.073158734 0.31819424 0.94519854 nan
-0.3481293 0.043881848 -0.76499999 -0.071701616 0.35989463 0.93023372 nan
-0.34666657 0.043881848 -0.76499999 -0.093601115 0.373101 0.92305714 nan
-0.34520385 0.043881848 -0.76499999 -0.094171084 0.36084053 0.92786103 nan
-0.34374112 0.043881848 -0.76499999 -0.035842173 0.22223365 0.97433442 nan
-0.34317327 0.043996572 -0.76700002 0.0050123073 0.34297425 0.93933147 nan
-0.34170672 0.043996572 -0.76700002 -0.13389391 0.13361822 0.98194629 nan
-0.34024015 0.043996572 -0.76700002 -0.16097857 0.16066815 0.97379237 nan
-0.33789021 0.043881848 -0.76499999 -0.19564795 -0.024488108 0.98036844 nan
-0.33642748 0.043881848 -0.76499999 -0.15713716 -0.078549705 0.98444802 nan
-0.33496475 0.043881848 -0.76499999 0.36586228 -0.5127539 0.77667773 nan
-0.30146351 0.043480314 -0.75800002 0.36116314 0.18061148 0.91484463 nan
-0.30001417 0.043480314 -0.75800002 0.23501234 0.23480608 0.94320482 nan
-0.29935259 0.043595038 -0.75999999 0.07383322 0.29539827 0.95251697 nan
-0.29789943 0.043595038 -0.75999999 0.073833242 0.29539827 0.95251691 nan
-0.29644626 0.043595038 -0.75999999 -0.08114735 0.16225445 0.98340654 nan
-0.29499307 0.043595038 -0.75999999 6.9161877e-05 0.18745424 0.98227334 nan
-0.29353991 0.043595038 -0.75999999 0.8448872 0.13785233 0.51687753 nan
-0.29131812 0.043480314 -0.75800002 0.93572807 0.34333211 0.080845594 nan
-0.28986877 0.043480314 -0.75800002 0.9465099 0.31237194 -0.080887184 nan
-0.28841943 0.043480314 -0.75800002 0.88029778 0.45135576 -0.14612937 nan
-0.29681337 0.044971723 -0.78399998 0.68734038 0.72632486 0.0039410461 nan
-0.29531431 0.044971723 -0.78399998 -0.0563301 0.81016344 0.58349133 nan
-0.29381526 0.044971723 -0.78399998 -0.5602839 0.31988844 0.76403755 nan
-0.29082477 0.044742275 -0.77999997 -0.59097618 0.14772333 0.7930479 nan
-0.28822055 0.044570189 -0.77700001 -0.48102653 0.15200362 0.86342824 nan
-0.28673488 0.044570189 -0.77700001 -0.19325018 0.25790522 0.94664639 nan
-0.28451496 0.044455465 -0.77499998 0.1503382 0.22571842 0.96252251 nan
-0.28376356 0.044570189 -0.77700001 2.4760388e-05 0.27824375 0.96051049 nan
-0.28227788 0.044570189 -0.77700001 0.10295828 0.33467495 0.93669224 nan
-0.28079221 0.044570189 -0.77700001 0.012039083 0.37948933 0.92511779 nan
-0.27930653 0.044570189 -0.77700001 -0.031943239 0.46690813 0.88372874 nan
-0.27782086 0.044570189 -0.77700001 -0.19747084 0.62661463 0.75389612 nan
-0.27633518 0.044570189 -0.77700001 -0.2108196 0.61096066 0.76307422 nan
-0.27555695 0.044684913 -0.77899998 -0.18800542 0.61940193 0.7622304 nan
-0.27406746 0.044684913 -0.77899998 -0.19056474 0.60619974 0.77214432 nan
-0.27257797 0.044684913 -0.77899998 -0.22147763 0.5954197 0.77228427 nan
-0.27039248 0.044570189 -0.77700001 -0.21363394 0.59705597 0.77323014 nan
-0.26821464 0.044455465 -0.77499998 -0.16184196 0.6102578 0.77549505 nan
-0.26604447 0.044340741 -0.773 -0.095494308 0.6220423 0.77713847 nan
-0.26456642 0.044340741 -0.773 -0.026685955 0.63647813 0.77083296 nan
-0.26308841 0.044340741 -0.773 0.052521169 0.65308088 0.75546467 nan
-0.26127195 0.044283383 -0.77200001 0.14503957 0.65649235 0.74025768 nan
-0.25979584 0.044283383 -0.77200001 0.23831919 0.65648419 0.71570426 nan
-0.25831974 0.044283383 -0.77200001 0.31814754 0.64950597 0.69059688 nan
-0.25717631 0.044340741 -0.773 0.35146791 0.64371777 0.6797778 nan
-0.25569829 0.044340741 -0.773 0.41123071 0.62416178 0.6643126 nan
-0.25487798 0.044455465 -0.77499998 0.40433362 0.62221467 0.6703456 nan
-0.25405008 0.044570189 -0.77700001 0.36533877 0.6172508 0.69679904 nan
-0.2525644 0.044570189 -0.77700001 0.38215333 0.59083706 0.71054226 nan
-0.25172502 0.044684913 -0.77899998 0.17292418 0.5297569 0.83033413 nan
-0.2502355 0.044684913 -0.77899998 0.033811755 0.55946928 0.82816112 nan
-0.24874602 0.044684913 -0.77899998 -8.4933112e-05 0.58290619 0.8125394 nan
-0.24725652 0.044684913 -0.77899998 -0 0.58728504 0.80938023 nan
-0.37640876 0.04280727 -0.77200001 -0.66697574 -0.11800639 0.7356751 nan
-0.37736094 0.043084517 -0.77700001 -0.67189378 -0.18428864 0.71735388 nan
-0.37490776 0.042973615 -0.77499998 -0.6590963 -0.26355216 0.70436668 nan
-0.3734259 0.042973615 -0.77499998 -0.61475253 -0.36252624 0.70046705 nan
-0.37194407 0.042973615 -0.77499998 -0.49167207 -0.53005844 0.69086665 nan
-0.37046221 0.042973615 -0.77499998 -0.40940821 -0.56858724 0.71350783 nan
-0.36802816 0.042862717 -0.773 -0.39972699 -0.55671448 0.72820836 nan
-0.36512756 0.042696368 -0.76999998 -0.38357422 -0.53175712 0.75505322 nan
-0.36365527 0.042696368 -0.76999998 -0.41449076 -0.47194278 0.77811795 nan
-0.36124226 0.04258547 -0.76800001 -0.44006774 -0.40271869 0.80259454 nan
-0.35977378 0.04258547 -0.76800001 -0.44501728 -0.33937883 0.82872283 nan
-0.35830534 0.04258547 -0.76800001 -0.42748594 -0.28154787 0.85906154 nan
-0.35637224 0.042530019 -0.76700002 -0.40959281 -0.22357669 0.88444734 nan
-0.35490569 0.042530019 -0.76700002 -0.35362637 -0.16524969 0.9206742 nan
-0.35251752 0.042419117 -0.76499999 -0.27050668 -0.10181788 0.95731872 nan
-0.35105479 0.042419117 -0.76499999 -0.21251352 -0.014664543 0.97704804 nan
-0.34959203 0.042419117 -0.76499999 -0.14356147 0.074737325 0.98681527 nan
-0.3481293 0.042419117 -0.76499999 -0.11379059 0.11653283 0.98664677 nan
-0.34576029 0.042308219 -0.76300001 -0.10167339 0.13287023 0.98590469 nan
-0.34610638 0.042530019 -0.76700002 -0.083497748 0.13433255 0.9874121 nan
-0.34463981 0.042530019 -0.76700002 -0.033225313 -0.033114307 0.99889916 nan
-0.34317327 0.042530019 -0.76700002 0.016036537 0.058631413 0.99815083 nan
-0.34170672 0.042530019 -0.76700002 -0.14819427 -0.06430652 0.98686534 nan
-0.34024015 0.042530019 -0.76700002 -0.17238428 2.8086015e-05 0.9850297 nan
-0.33789021 0.042419117 -0.76499999 -0.10361529 -0.10375519 0.98919088 nan
-0.33642748 0.042419117 -0.76499999 -3.3182576e-05 -0.21118505 0.97744608 nan
-0.33496475 0.042419117 -0.76499999 0.32819837 -0.16427505 0.93021476 nan
-0.33350202 0.042419117 -0.76499999 0.49136037 -0.49151444 0.7190122 nan
-0.29935259 0.04214187 -0.75999999 -0.14960612 0.29871985 0.94254148 nan
-0.29789943 0.04214187 -0.75999999 -0.14062092 0.42246598 0.89540398 nan
-0.29566613 0.042030971 -0.75800002 0.15448081 0.23150001 0.96049118 nan
-0.29499307 0.04214187 -0.75999999 -0.080424123 0.20111617 0.9762603 nan
-0.29353991 0.04214187 -0.75999999 -0.081851617 0.12281757 0.98904806 nan
-0.29131812 0.042030971 -0.75800002 0.87713224 0.42512509 0.22340031 nan
-0.28986877 0.042030971 -0.75800002 0.84289896 0.53159899 0.08320985 nan
-0.28841943 0.042030971 -0.75800002 0.8657912 0.4971112 -0.05732365 nan
-0.29681337 0.043472666 -0.78399998 0.8072322 0.58773369 -0.054269969 nan
-0.29531431 0.043472666 -0.78399998 0.57556152 0.81321567 0.086076126 nan
-0.29306573 0.043361768 -0.78200001 0.18801726 0.91939902 0.34547809 nan
-0.29082477 0.043250866 -0.77999997 -0.22729744 0.76761138 0.59925681 nan
-0.28896242 0.043195415 -0.77899998 -0.43734768 0.54876155 0.71245188 nan
-0.28747293 0.043195415 -0.77899998 -0.25601402 0.48334888 0.83715624 nan
-0.28451496 0.042973615 -0.77499998 -0.07608214 0.30492789 0.94933152 nan
-0.28376356 0.043084517 -0.77700001 -0.015081205 0.79778272 0.60275644 nan
-0.28227788 0.043084517 -0.77700001 0.024730954 0.76072025 0.64860851 nan
-0.28079221 0.043084517 -0.77700001 0.018374547 0.71175027 0.70219213 nan
-0.27930653 0.043084517 -0.77700001 -0.023696298 0.7814827 0.6234768 nan
-0.27782086 0.043084517 -0.77700001 -0.069624148 0.7446146 0.66385353 nan
-0.27633518 0.043084517 -0.77700001 -0.077863246 0.6982677 0.7115894 nan
-0.2748495 0.043084517 -0.77700001 -0.143399 0.66405618 0.73380256 nan
-0.27336383 0.043084517 -0.77700001 -0.15280816 0.62864494 0.76253211 nan
-0.27117833 0.042973615 -0.77499998 -0.21305352 0.60176587 0.7697311 nan
-0.2690005 0.042862717 -0.773 -0.20718166 0.59351349 0.77770001 nan
-0.26752248 0.042862717 -0.773 -0.15094045 0.60204047 0.784069 nan
-0.26570028 0.04280727 -0.77200001 -0.088330969 0.60333323 0.79258233 nan
-0.26422417 0.04280727 -0.77200001 -0.02492634 0.61175114 0.7906574 nan
-0.26274806 0.04280727 -0.77200001 0.060048983 0.62320071 0.77975309 nan
-0.26127195 0.04280727 -0.77200001 0.16171671 0.62768108 0.7614882 nan
-0.25979584 0.04280727 -0.77200001 0.25780571 0.62035465 0.7407403 nan
-0.25865433 0.042862717 -0.773 0.33832413 0.61228442 0.71459401 nan
-0.25717631 0.042862717 -0.773 0.36657265 0.60952383 0.70292622 nan
-0.25569829 0.042862717 -0.773 0.43571043 0.57024866 0.69639987 nan
-0.25422025 0.042862717 -0.773 0.40324673 0.60256672 0.68869829 nan
-0.25339615 0.042973615 -0.77499998 0.40536168 0.56827772 0.71606028 nan
-0.2525644 0.043084517 -0.77700001 0.41685092 0.55542535 0.71954006 nan
-0.25107875 0.043084517 -0.77700001 0.22874388 0.54850131 0.8042528 nan
-0.24959306 0.043084517 -0.77700001 0.035942886 0.48671219 0.87282258 nan
-0.24874602 0.043195415 -0.77899998 0.065899357 0.46083564 0.88503551 nan
-0.3832348 0.042080685 -0.78600001 -0.62255204 -0.2764723 0.73211473 nan
-0.38173193 0.042080685 -0.78600001 -0.62203765 -0.34413475 0.70330673 nan
-0.37684277 0.041705918 -0.77899998 -0.60216814 -0.41988054 0.67903894 nan
-0.37438959 0.041598845 -0.77700001 -0.54586571 -0.48933452 0.68013412 nan
-0.37386379 0.041705918 -0.77899998 -0.44171518 -0.59993607 0.66705656 nan
-0.37141827 0.041598845 -0.77700001 -0.40804946 -0.61133432 0.67806041 nan
-0.36993259 0.041598845 -0.77700001 -0.40493003 -0.60336506 0.68700963 nan
-0.36749852 0.041491766 -0.77499998 -0.4024525 -0.5826813 0.70605558 nan
-0.36459985 0.041331157 -0.77200001 -0.43230137 -0.5375461 0.72398871 nan
-0.36218297 0.041224077 -0.76999998 -0.45145741 -0.49996686 0.73906654 nan
-0.36071068 0.041224077 -0.76999998 -0.45121574 -0.47608444 0.75481647 nan
-0.35830534 0.041117005 -0.76800001 -0.43525022 -0.46331388 0.77194405 nan
-0.35637224 0.041063469 -0.76700002 -0.42655405 -0.42879248 0.79635954 nan
-0.35490569 0.041063469 -0.76700002 -0.38356602 -0.40469289 0.83012104 nan
-0.35343912 0.041063469 -0.76700002 -0.31542304 -0.3796325 0.86970538 nan
-0.35197258 0.041063469 -0.76700002 -0.26923952 -0.34602588 0.89876366 nan
-0.34959203 0.040956389 -0.76499999 -0.1928107 -0.30567279 0.93240988 nan
-0.3481293 0.040956389 -0.76499999 -0.12881617 -0.29948032 0.94536662 nan
-0.34666657 0.040956389 -0.76499999 -0.11509693 -0.28790954 0.95071596 nan
-0.34610638 0.041063469 -0.76700002 -0.1042163 -0.25778934 0.9605642 nan
-0.34463981 0.041063469 -0.76700002 -0.0667153 -0.3134611 0.94725454 nan
-0.34317327 0.041063469 -0.76700002 -0.0052591078 -0.15859108 0.98733032 nan
-0.34170672 0.041063469 -0.76700002 -0.13459951 -0.20485005 0.96949446 nan
-0.34024015 0.041063469 -0.76700002 -0.17194295 -0.13741362 0.97547585 nan
-0.33789021 0.040956389 -0.76499999 -0.090412296 -0.19400547 0.97682518 nan
-0.33730707 0.041063469 -0.76700002 0.043163605 -0.17291713 0.98399007 nan
-0.33496475 0.040956389 -0.76499999 0.15910304 0.07962662 0.98404568 nan
-0.33437395 0.041063469 -0.76700002 0.372008 0 0.92822951 nan
-0.33290741 0.041063469 -0.76700002 -0 0.16667365 0.9860121 nan
-0.29711547 0.040581629 -0.75800002 -0 0.16841491 0.98571616 nan
-0.29566613 0.040581629 -0.75800002 0.67134166 0.16780598 0.72190136 nan
-0.29499307 0.040688701 -0.75999999 -0.070118569 0.28053507 0.95727926 nan
-0.29353991 0.040688701 -0.75999999 -0.072778292 0.1457483 0.98664105 nan
-0.29131812 0.040581629 -0.75800002 0.53576314 0.089818634 0.8395775 nan
-0.28986877 0.040581629 -0.75800002 0.74822479 0.62430406 0.22450855 nan
-0.28918043 0.040688701 -0.75999999 0.66702819 0.73021489 0.1478502 nan
-0.28772724 0.040688701 -0.75999999 0.53228408 0.83172905 0.15779839 nan
-0.2938076 0.041759457 -0.77999997 0.37424552 0.9081887 0.18743971 nan
-0.2923162 0.041759457 -0.77999997 0.19718556 0.94249332 0.26985958 nan
-0.29082477 0.041759457 -0.77999997 0.033999778 0.94078779 0.33728656 nan
-0.28822055 0.041598845 -0.77700001 0.013801079 0.93444771 0.3558327 nan
-0.28673488 0.041598845 -0.77700001 0.06134649 0.93662614 0.34491736 nan
-0.28451496 0.041491766 -0.77499998 0.07022839 0.93710524 0.34190878 nan
-0.28303313 0.041491766 -0.77499998 0.092500359 0.90365547 0.41815114 nan
-0.28227788 0.041598845 -0.77700001 0.11913925 0.88377386 0.45249256 nan
-0.28079221 0.041598845 -0.77700001 0.14301047 0.83493215 0.53144729 nan
-0.27858758 0.041491766 -0.77499998 0.093848921 0.79885626 0.59415567 nan
-0.27710572 0.041491766 -0.77499998 -0.012106967 0.76529586 0.64356482 nan
-0.27633518 0.041598845 -0.77700001 -0.047977746 0.71091801 0.70163649 nan
-0.27414203 0.041491766 -0.77499998 -0.061551891 0.67199552 0.73799288 nan
-0.2726602 0.041491766 -0.77499998 -0.1300966 0.64326924 0.75450617 nan
-0.27012864 0.041331157 -0.77200001 -0.18994421 0.61372995 0.76632679 nan
-0.26795653 0.041224077 -0.76999998 -0.187705 0.59494013 0.78154528 nan
-0.26717639 0.041331157 -0.77200001 -0.13006067 0.59852886 0.79047292 nan
-0.26501194 0.041224077 -0.76999998 -0.067728296 0.59358341 0.80191755 nan
-0.26353964 0.041224077 -0.76999998 -0.017743004 0.59039873 0.80691665 nan
-0.26206735 0.041224077 -0.76999998 0.067691073 0.59455234 0.80120254 nan
-0.26059508 0.041224077 -0.76999998 0.18223567 0.59536362 0.78251666 nan
-0.25979584 0.041331157 -0.77200001 0.28570575 0.5824126 0.76103073 nan
-0.25831974 0.041331157 -0.77200001 0.35723594 0.56817186 0.7413252 nan
-0.25717631 0.041384693 -0.773 0.39044809 0.56136572 0.72967035 nan
-0.25569829 0.041384693 -0.773 0.45965716 0.5091418 0.72766072 nan
-0.25422025 0.041384693 -0.773 0.4310579 0.53311437 0.72799593 nan
-0.25339615 0.041491766 -0.77499998 0.44598857 0.4991096 0.74295604 nan
-0.2525644 0.041598845 -0.77700001 0.42715201 0.52948302 0.73293173 nan
-0.25107875 0.041598845 -0.77700001 0.23072551 0.54147643 0.8084361 nan
-0.24959306 0.041598845 -0.77700001 0.10685366 0.53362137 0.83894616 nan
-0.24810739 0.041598845 -0.77700001 0.068266027 0.40895104 0.90999937 nan
-0.24598691 0.041491766 -0.77499998 0.17099197 0.17081665 0.97035223 nan
-0.37732652 0.040268045 -0.77999997 -0.56813258 -0.48310643 0.66620839 nan
-0.37679881 0.040371299 -0.78200001 -0.52967197 -0.53977758 0.65428424 nan
-0.37434369 0.040268045 -0.77999997 -0.44647127 -0.60215962 0.66186649 nan
-0.3728523 0.040268045 -0.77999997 -0.41605341 -0.61705995 0.6679346 nan
-0.37088478 0.04021642 -0.77899998 -0.41555887 -0.61316985 0.67181361 nan
-0.36939529 0.04021642 -0.77899998 -0.4146145 -0.60256165 0.68191963 nan
-0.36696124 0.040113173 -0.77700001 -0.43542606 -0.57624114 0.69162869 nan
-0.36312371 0.039855044 -0.77200001 -0.4428598 -0.5636341 0.69727457 nan
-0.36164761 0.039855044 -0.77200001 -0.43408605 -0.56136101 0.70458716 nan
-0.35923839 0.03975179 -0.76999998 -0.42190692 -0.56472647 0.70928031 nan
-0.35683686 0.03964854 -0.76800001 -0.42002231 -0.55291873 0.71962631 nan
-0.35490569 0.039596915 -0.76700002 -0.37905294 -0.55934155 0.73719454 nan
-0.35343912 0.039596915 -0.76700002 -0.31293407 -0.57262367 0.757743 nan
-0.35197258 0.039596915 -0.76700002 -0.26835063 -0.57680905 0.77154344 nan
-0.34959203 0.039493661 -0.76499999 -0.18993776 -0.58872706 0.78569978 nan
-0.3481293 0.039493661 -0.76499999 -0.12441897 -0.59799182 0.79178649 nan
-0.34666657 0.039493661 -0.76499999 -0.12641285 -0.58060861 0.80430925 nan
-0.34610638 0.039596915 -0.76700002 -0.14181514 -0.54739463 0.82477123 nan
-0.34463981 0.039596915 -0.76700002 -0.1436599 -0.50192082 0.85289931 nan
-0.34317327 0.039596915 -0.76700002 -0.097793363 -0.51656777 0.85064334 nan
-0.34170672 0.039596915 -0.76700002 -0.073502906 -0.34725416 0.93488598 nan
-0.34024015 0.039596915 -0.76700002 -0.076510087 -0.35056746 0.93340701 nan
-0.33877361 0.039596915 -0.76700002 -0.096861348 -0.2643702 0.95954484 nan
-0.33730707 0.039596915 -0.76700002 -0.039936449 -0.15997683 0.98631257 nan
-0.33496475 0.039493661 -0.76499999 2.0890981e-05 -0.085377149 0.99634868 nan
-0.33437395 0.039596915 -0.76700002 0.075334765 0.22576395 0.97126478 nan
-0.33290741 0.039596915 -0.76700002 -0.14768139 0.29517102 0.94396204 nan
-0.33144084 0.039596915 -0.76700002 -0.24265194 0.48530447 0.83999979 nan
-0.29499307 0.039235532 -0.75999999 -0 0.55420291 0.83238155 nan
-0.29353991 0.039235532 -0.75999999 -0.1497319 0.29966119 0.94222265 nan
-0.29131812 0.039132282 -0.75800002 0.2391741 0.15948489 0.95778924 nan
-0.29063359 0.039235532 -0.75999999 0.56722301 0.45343071 0.68750161 nan
-0.28918043 0.039235532 -0.75999999 0.55074662 0.77703202 0.30479404 nan
-0.28772724 0.039235532 -0.75999999 0.50930327 0.81276309 0.28288916 nan
-0.28627408 0.039235532 -0.75999999 0.43171549 0.86393601 0.2592997 nan
-0.29194143 0.04021642 -0.77899998 0.2600292 0.92348683 0.28205878 nan
-0.29045194 0.04021642 -0.77899998 0.10325888 0.93091273 0.35034144 nan
-0.28822055 0.040113173 -0.77700001 0.050318167 0.92398274 0.37910953 nan
-0.28673488 0.040113173 -0.77700001 0.024663098 0.91590756 0.40063071 nan
-0.28451496 0.04000992 -0.77499998 0.11283233 0.91524589 0.38677385 nan
-0.28303313 0.04000992 -0.77499998 0.22363719 0.8625192 0.45392391 nan
-0.28227788 0.040113173 -0.77700001 0.21774392 0.84342784 0.49113858 nan
-0.28079221 0.040113173 -0.77700001 0.1640377 0.81170183 0.56056368 nan
-0.27858758 0.04000992 -0.77499998 0.14380389 0.79794323 0.58532649 nan
-0.27710572 0.04000992 -0.77499998 0.032400724 0.76632231 0.64163876 nan
-0.27562389 0.04000992 -0.77499998 -0.01724853 0.74072647 0.67158532 nan
-0.27308086 0.039855044 -0.77200001 -0.026021697 0.70307225 0.7106421 nan
-0.27090108 0.03975179 -0.76999998 -0.10491256 0.67320836 0.73197269 nan
-0.268729 0.03964854 -0.76800001 -0.15720843 0.641671 0.75069553 nan
-0.26726052 0.03964854 -0.76800001 -0.15505248 0.61990577 0.76920456 nan
-0.26579207 0.03964854 -0.76800001 -0.10203065 0.60907757 0.78652036 nan
-0.26432359 0.03964854 -0.76800001 -0.037917029 0.59556639 0.80241072 nan
-0.26285514 0.03964854 -0.76800001 0.0086661791 0.57709646 0.81663007 nan
-0.26138666 0.03964854 -0.76800001 0.092887111 0.56272805 0.82140684 nan
-0.25991821 0.03964854 -0.76800001 0.21550046 0.54368633 0.81115031 nan
-0.25912279 0.03975179 -0.76999998 0.32552218 0.52076268 0.78920317 nan
-0.25831974 0.039855044 -0.77200001 0.39636946 0.50598466 0.76607496 nan
-0.25684363 0.039855044 -0.77200001 0.42770422 0.48132518 0.76511121 nan
-0.25536749 0.039855044 -0.77200001 0.50639015 0.42348525 0.75115198 nan
-0.25422025 0.039906669 -0.773 0.45552099 0.47396767 0.75356162 nan
-0.25274223 0.039906669 -0.773 0.47178972 0.45294815 0.7564736 nan
-0.25191429 0.04000992 -0.77499998 0.46730435 0.47487938 0.74573201 nan
-0.25107875 0.040113173 -0.77700001 0.20920615 0.45448685 0.86583751 nan
-0.2489506 0.04000992 -0.77499998 0.09096621 0.50755519 0.85680383 nan
-0.24810739 0.040113173 -0.77700001 0.13824327 0.41502032 0.89924812 nan
-0.24598691 0.04000992 -0.77499998 0.17502837 -6.1711857e-05 0.98456341 nan
-0.24513605 0.040113173 -0.77700001 0.15169671 0.45615861 0.87687361 nan
-0.38022906 0.03907492 -0.78600001 -0.53922671 -0.46277416 0.70361543 nan
-0.37776247 0.038975492 -0.78399998 -0.50778711 -0.54708165 0.66547269 nan
-0.37626341 0.038975492 -0.78399998 -0.45161235 -0.59090889 0.66848558 nan
-0.37476435 0.038975492 -0.78399998 -0.41811174 -0.61424327 0.66924423 nan
-0.37136087 0.038776636 -0.77999997 -0.41748455 -0.61534703 0.66862136 nan
-0.36986947 0.038776636 -0.77999997 -0.41848302 -0.61212671 0.67094928 nan
-0.3679058 0.038726926 -0.77899998 -0.43335357 -0.59722239 0.67492974 nan
-0.36359408 0.038428642 -0.773 -0.43709427 -0.5929352 0.67629611 nan
-0.36164761 0.038378932 -0.77200001 -0.42738637 -0.59491676 0.6807459 nan
-0.35923839 0.0382795 -0.76999998 -0.41105708 -0.60607296 0.68096089 nan
-0.35776612 0.0382795 -0.76999998 -0.40849489 -0.60657769 0.68205243 nan
-0.35536841 0.038180076 -0.76800001 -0.37023985 -0.62570417 0.68659788 nan
-0.35343912 0.038130362 -0.76700002 -0.30415472 -0.6533038 0.69331384 nan
-0.35197258 0.038130362 -0.76700002 -0.25677794 -0.67342168 0.69323039 nan
-0.35050604 0.038130362 -0.76700002 -0.1889338 -0.69294715 0.69579327 nan
-0.34903947 0.038130362 -0.76700002 -0.13635984 -0.7001797 0.70082414 nan
-0.34666657 0.038030934 -0.76499999 -0.14571469 -0.6819312 0.71675467 nan
-0.34520385 0.038030934 -0.76499999 -0.16838677 -0.65676528 0.73505461 nan
-0.34463981 0.038130362 -0.76700002 -0.17312126 -0.62970281 0.75730008 nan
-0.34317327 0.038130362 -0.76700002 -0.15473413 -0.62538296 0.76482248 nan
-0.34170672 0.038130362 -0.76700002 -0.12044954 -0.53289425 0.83756524 nan
-0.34024015 0.038130362 -0.76700002 -0.12736629 -0.4804129 0.86774492 nan
-0.33789021 0.038030934 -0.76499999 -0.14226709 -0.33488068 0.93145847 nan
-0.33730707 0.038130362 -0.76700002 -0.10291924 -0.16720234 0.9805361 nan
-0.33496475 0.038030934 -0.76499999 -0.12786607 -0.076634035 0.98882633 nan
-0.33350202 0.038030934 -0.76499999 -0.12051243 -0.040095519 0.9919017 nan
-0.33290741 0.038130362 -0.76700002 -0.2592366 -0 0.96581382 nan
-0.33057657 0.038030934 -0.76499999 -0.27100456 0.27100524 0.92364109 nan
-0.32911384 0.038030934 -0.76499999 -0 0.16704111 0.98594993 nan
-0.29276747 0.037682939 -0.75800002 -0 0.16852212 0.98569793 nan
-0.29131812 0.037682939 -0.75800002 -0 0.16852212 0.98569793 nan
-0.28986877 0.037682939 -0.75800002 0.40901402 5.9693575e-05 0.9125281 nan
-0.28841943 0.037682939 -0.75800002 0.47498944 0.49351665 0.72857833 nan
-0.28772724 0.037782367 -0.75999999 0.20931128 0.85508156 0.4743675 nan
-0.28627408 0.037782367 -0.75999999 0.29368266 0.88355905 0.364793 nan
-0.28482091 0.037782367 -0.75999999 0.15808715 0.89869422 0.40909314 nan
-0.28374058 0.037832078 -0.76099998 0.14786251 0.90453798 0.39993447 nan
-0.28228551 0.037832078 -0.76099998 0.12524183 0.90133661 0.4146165 nan
-0.28525877 0.038428642 -0.773 0.19002348 0.89196342 0.4102346 nan
-0.28378075 0.038428642 -0.773 0.27263233 0.87463933 0.40084621 nan
-0.28303313 0.03852807 -0.77499998 0.22946301 0.84995103 0.47426775 nan
-0.28155127 0.03852807 -0.77499998 0.21041143 0.83870143 0.50230169 nan
-0.28006944 0.03852807 -0.77499998 0.16466326 0.81381339 0.55730945 nan
-0.27786866 0.038428642 -0.773 0.11732553 0.80553579 0.58081561 nan
-0.27639064 0.038428642 -0.773 0.067076899 0.78848386 0.61138678 nan
-0.27455696 0.038378932 -0.77200001 0.059512265 0.76177657 0.64510047 nan
-0.27237338 0.0382795 -0.76999998 0.014701596 0.73504615 0.6778577 nan
-0.27019745 0.038180076 -0.76800001 -0.068104178 0.69847548 0.71238607 nan
-0.26837909 0.038130362 -0.76700002 -0.11467741 0.66495723 0.73802507 nan
-0.26691255 0.038130362 -0.76700002 -0.10525689 0.64046264 0.76074219 nan
-0.26544598 0.038130362 -0.76700002 -0.044307332 0.62103885 0.78252649 nan
-0.26397943 0.038130362 -0.76700002 0.019339792 0.59145057 0.80610925 nan
-0.26251289 0.038130362 -0.76700002 0.064790048 0.55865484 0.82686579 nan
-0.26104632 0.038130362 -0.76700002 0.15632318 0.52348661 0.83757073 nan
-0.25957978 0.038130362 -0.76700002 0.27781984 0.48802796 0.82743269 nan
-0.25844973 0.038180076 -0.76800001 0.3650001 0.45788181 0.81062889 nan
-0.25765049 0.0382795 -0.76999998 0.43821678 0.43836963 0.78472805 nan
-0.25684363 0.038378932 -0.77200001 0.48441041 0.40659764 0.77461272 nan
-0.25536749 0.038378932 -0.77200001 0.52189928 0.37157544 0.76782346 nan
-0.25422025 0.038428642 -0.773 0.52588624 0.3333517 0.78250897 nan
-0.25274223 0.038428642 -0.773 0.4873229 0.38959184 0.78149503 nan
-0.25126421 0.038428642 -0.773 0.50855958 0.30324647 0.80585897 nan
-0.25043246 0.03852807 -0.77499998 0.34915403 0.37516308 0.8586874 nan
-0.2489506 0.03852807 -0.77499998 0.19059646 0.21759392 0.9572491 nan
-0.24810739 0.038627498 -0.77700001 0.12158808 0.32428989 0.93811113 nan
-0.24662173 0.038627498 -0.77700001 -0.30958796 0.39311588 0.86580318 nan
-0.24513605 0.038627498 -0.77700001 -0.095863581 0.766303 0.63528723 nan
-0.24365038 0.038627498 -0.77700001 0.95270354 0.27512565 -0.12908077 nan
-0.37421751 0.037572041 -0.78600001 -0.41853145 -0.61069232 0.67222494 nan
-0.37176624 0.037476435 -0.78399998 -0.41816777 -0.61566263 0.66790372 nan
-0.36932263 0.037380833 -0.78200001 -0.42994976 -0.61096877 0.66472578 nan
-0.36641628 0.037237428 -0.77899998 -0.42996028 -0.61635977 0.65972328 nan
-0.36305296 0.03704622 -0.77499998 -0.41317886 -0.63040143 0.65717363 nan
-0.36063805 0.036950618 -0.773 -0.39079741 -0.65200168 0.64974707 nan
-0.35869539 0.036902819 -0.77200001 -0.3890273 -0.65517741 0.64761132 nan
-0.35629383 0.036807213 -0.76999998 -0.35168776 -0.68090636 0.64240342 nan
-0.35343912 0.036663812 -0.76700002 -0.28513661 -0.71310431 0.6404525 nan
-0.35243148 0.036711611 -0.76800001 -0.24295029 -0.73265988 0.63575512 nan
-0.35050604 0.036663812 -0.76700002 -0.19053051 -0.74883562 0.63477826 nan
-0.34949455 0.036711611 -0.76800001 -0.14705798 -0.75634205 0.63743293 nan
-0.34757292 0.036663812 -0.76700002 -0.15634727 -0.740183 0.65397602 nan
-0.34655762 0.036711611 -0.76800001 -0.18080372 -0.7193048 0.67075372 nan
-0.34463981 0.036663812 -0.76700002 -0.19927505 -0.69446594 0.69138038 nan
-0.34317327 0.036663812 -0.76700002 -0.21051267 -0.66273355 0.71865755 nan
-0.34215221 0.036711611 -0.76800001 -0.19296613 -0.63695771 0.74635702 nan
-0.34024015 0.036663812 -0.76700002 -0.18488204 -0.57436079 0.79745126 nan
-0.33877361 0.036663812 -0.76700002 -0.27322245 -0.46377498 0.84277046 nan
-0.33730707 0.036663812 -0.76700002 -0.24773037 -0.32506755 0.91266686 nan
-0.33496475 0.036568206 -0.76499999 -0.19141956 -0.25095731 0.94888294 nan
-0.33350202 0.036568206 -0.76499999 -0.12609394 -0.21412674 0.96863312 nan
-0.33290741 0.036663812 -0.76700002 -0.081893221 -0.1227029 0.98905891 nan
-0.33057657 0.036568206 -0.76499999 -0.1910838 -0.38211235 0.90414447 nan
-0.32911384 0.036568206 -0.76499999 -0 -0.32786644 0.94472414 nan
-0.32765111 0.036568206 -0.76499999 -0 -0.16971266 0.98549366 nan
-0.29131812 0.036233597 -0.75800002 0.18153813 0 0.98338383 nan
-0.28986877 0.036233597 -0.75800002 0.24437112 -0.081442475 0.96625566 nan
-0.28841943 0.036233597 -0.75800002 -8.7114582e-05 0.1684241 0.98571455 nan
-0.28772724 0.036329199 -0.75999999 -0.11777833 0.61360842 0.78077722 nan
-0.28552073 0.036233597 -0.75800002 0.14582175 0.84234381 0.51883805 nan
-0.28407139 0.036233597 -0.75800002 0.064483047 0.85539389 0.51394874 nan
-0.28262204 0.036233597 -0.75800002 0.16210024 0.87302595 0.45994487 nan
-0.28117269 0.036233597 -0.75800002 0.16762842 0.88041121 0.44359535 nan
-0.27972335 0.036233597 -0.75800002 0.20206071 0.87556303 0.43881756 nan
-0.27643844 0.035994589 -0.75300002 0.23317583 0.86511827 0.44407135 nan
-0.27609426 0.036137991 -0.75599998 0.2293577 0.82726377 0.51286423 nan
-0.27464873 0.036137991 -0.75599998 0.20652428 0.81906497 0.5352385 nan
-0.27320322 0.036137991 -0.75599998 0.19793171 0.80803686 0.55488694 nan
-0.27679023 0.036807213 -0.76999998 0.12180108 0.78255391 0.61055219 nan
-0.27531797 0.036807213 -0.76999998 0.11951031 0.77413857 0.6216324 nan
-0.27384567 0.036807213 -0.76999998 0.10580298 0.75541216 0.64665163 nan
-0.27131221 0.036663812 -0.76700002 0.070117362 0.73113966 0.67861509 nan
-0.26984563 0.036663812 -0.76700002 -0.0151483 0.69049037 0.72318292 nan
-0.26837909 0.036663812 -0.76700002 -0.065918028 0.65187776 0.75545365 nan
-0.26621655 0.036568206 -0.76499999 -0.051547918 0.6219604 0.7813502 nan
-0.26475382 0.036568206 -0.76499999 0.021998063 0.60106397 0.79889822 nan
-0.26329109 0.036568206 -0.76499999 0.093159795 0.56646591 0.81880248 nan
-0.26182836 0.036568206 -0.76499999 0.13813475 0.52721602 0.83842832 nan
-0.26036564 0.036568206 -0.76499999 0.22352937 0.48581776 0.84499449 nan
-0.25890291 0.036568206 -0.76499999 0.32578927 0.45055664 0.83117986 nan
-0.25811324 0.036663812 -0.76700002 0.4034856 0.42231405 0.81169587 nan
-0.25698128 0.036711611 -0.76800001 0.47534394 0.3934896 0.78690159 nan
-0.2555128 0.036711611 -0.76800001 0.52227956 0.36482266 0.77079725 nan
-0.25404435 0.036711611 -0.76800001 0.56198484 0.32501131 0.76061857 nan
-0.25323364 0.036807213 -0.76999998 0.56649369 0.2811498 0.77462232 nan
-0.25241527 0.036902819 -0.77200001 0.5378564 0.31856555 0.78052956 nan
-0.25093916 0.036902819 -0.77200001 0.62678313 0.1717024 0.76004022 nan
-0.24978618 0.036950618 -0.773 0.50338179 0.20497213 0.83940053 nan
-0.24830815 0.036950618 -0.773 0.29794323 0.00010667415 0.95458359 nan
-0.24683014 0.036950618 -0.773 0.15418948 -0.083784267 0.98448253 nan
-0.24598691 0.03704622 -0.77499998 -0.020535629 0.16371506 0.98629385 nan
-0.24387409 0.036950618 -0.773 0.98673785 -0.099369995 0.12835151 nan
-0.24239606 0.036950618 -0.773 0.98708665 -0.0004172388 -0.16018668 nan
-0.24091804 0.036950618 -0.773 0.98237664 0.034053415 -0.1837839 nan
-0.37026718 0.035977378 -0.78399998 -0.42055643 -0.60658878 0.67467201 nan
-0.36782739 0.035885599 -0.78200001 -0.41651553 -0.62284249 0.66225535 nan
-0.36539525 0.035793819 -0.77999997 -0.39631739 -0.64410466 0.65426433 nan
-0.36250421 0.035656154 -0.77700001 -0.37354541 -0.67183125 0.6396144 nan
-0.36008927 0.03556437 -0.77499998 -0.37183771 -0.68099397 0.63085967 nan
-0.35721928 0.035426706 -0.77200001 -0.33731967 -0.70816815 0.62025261 nan
-0.35389993 0.035243146 -0.76800001 -0.27891165 -0.73919684 0.61302221 nan
-0.35243148 0.035243146 -0.76800001 -0.23899731 -0.75952315 0.60498321 nan
-0.350963 0.035243146 -0.76800001 -0.19427155 -0.77738875 0.59826857 nan
-0.35040468 0.035334926 -0.76999998 -0.16205817 -0.78459579 0.59845364 nan
-0.34802607 0.035243146 -0.76800001 -0.17434001 -0.77045435 0.61319298 nan
-0.34746009 0.035334926 -0.76999998 -0.19861345 -0.75236928 0.62808692 nan
-0.34508914 0.035243146 -0.76800001 -0.22393416 -0.73034263 0.64533192 nan
-0.34362069 0.035243146 -0.76800001 -0.24279058 -0.70457119 0.66680747 nan
-0.34304324 0.035334926 -0.76999998 -0.24449965 -0.688155 0.68312705 nan
-0.34068376 0.035243146 -0.76800001 -0.24558796 -0.63278627 0.73434871 nan
-0.33877361 0.035197258 -0.76700002 -0.26316467 -0.56637961 0.78099835 nan
-0.33730707 0.035197258 -0.76700002 -0.3516399 -0.48545474 0.80042684 nan
-0.33584049 0.035197258 -0.76700002 -0.27082515 -0.4022505 0.87455601 nan
-0.33437395 0.035197258 -0.76700002 -0.18248659 -0.39924732 0.89849883 nan
-0.33290741 0.035197258 -0.76700002 -0.1333167 -0.3393141 0.93117809 nan
-0.33057657 0.035105478 -0.76499999 -0.15315233 -0.26788774 0.95119947 nan
-0.32911384 0.035105478 -0.76499999 -0.13195327 -0.39585984 0.90878123 nan
-0.32765111 0.035105478 -0.76499999 -0.26664153 -0.399919 0.87690765 nan
-0.32618839 0.035105478 -0.76499999 -0.15191762 -0.30378616 0.94055033 nan
-0.28986877 0.034784254 -0.75800002 0.15750587 0.15743928 0.97488701 nan
-0.28918043 0.03487603 -0.75999999 -0.12163199 0.081000313 0.98926473 nan
-0.28772724 0.03487603 -0.75999999 -0.25419915 0.21937542 0.94194329 nan
-0.28627408 0.03487603 -0.75999999 -0.069914304 0.62678993 0.77604538 nan
-0.28332186 0.03469247 -0.75599998 -0.067608319 0.72134775 0.68926531 nan
-0.28187633 0.03469247 -0.75599998 0.080863945 0.82692307 0.55647033 nan
-0.28043082 0.03469247 -0.75599998 0.21786462 0.82320875 0.52427316 nan
-0.27787822 0.034554806 -0.75300002 0.26953959 0.82740629 0.49269378 nan
-0.27643844 0.034554806 -0.75300002 0.27135119 0.81965947 0.50450659 nan
-0.27609426 0.03469247 -0.75599998 0.209446 0.79894596 0.56375325 nan
-0.27464873 0.03469247 -0.75599998 0.20197089 0.78856498 0.5808382 nan
-0.27320322 0.03469247 -0.75599998 0.18662028 0.77956086 0.5978778 nan
-0.27499291 0.035105478 -0.76499999 0.163609 0.7633844 0.62488115 nan
-0.27424529 0.035197258 -0.76700002 0.16790664 0.74958789 0.6402542 nan
-0.27206746 0.035105478 -0.76499999 0.16169143 0.72992218 0.66413057 nan
-0.27060473 0.035105478 -0.76499999 0.12828995 0.70273548 0.69978881 nan
-0.26984563 0.035197258 -0.76700002 0.043836087 0.66237396 0.74788988 nan
-0.26767927 0.035105478 -0.76499999 -0.0091090687 0.62226653 0.78275251 nan
-0.26621655 0.035105478 -0.76499999 0.0036666102 0.58590043 0.81037474 nan
-0.26475382 0.035105478 -0.76499999 0.082497776 0.56081146 0.82382321 nan
-0.26329109 0.035105478 -0.76499999 0.16001768 0.5256691 0.83550364 nan
-0.26182836 0.035105478 -0.76499999 0.20219107 0.48602256 0.85023582 nan
-0.26036564 0.035105478 -0.76499999 0.27986956 0.45191085 0.84702396 nan
-0.25890291 0.035105478 -0.76499999 0.36839038 0.42503741 0.82682019 nan
-0.25811324 0.035197258 -0.76700002 0.43488994 0.40302804 0.80525708 nan
-0.25664666 0.035197258 -0.76700002 0.50230873 0.38613203 0.77368474 nan
-0.2555128 0.035243146 -0.76800001 0.55516756 0.35861272 0.75045723 nan
-0.25371358 0.035197258 -0.76700002 0.59291565 0.32130426 0.73838651 nan
-0.25323364 0.035334926 -0.76999998 0.60094321 0.29249191 0.74385202 nan
-0.25241527 0.035426706 -0.77200001 0.60818958 0.20037578 0.76808524 nan
-0.25126421 0.035472594 -0.773 0.63256603 0.15716264 0.75839311 nan
-0.24978618 0.035472594 -0.773 0.59730303 -0.020097831 0.80176383 nan
-0.24830815 0.035472594 -0.773 0.45740443 -0.038550615 0.88842273 nan
-0.24746875 0.03556437 -0.77499998 0.17014174 -0.40496418 0.89836282 nan
-0.24598691 0.03556437 -0.77499998 0.8991015 -0.28663638 0.33084133 nan
-0.24387409 0.035472594 -0.773 0.96084762 -0.2079289 0.18313244 nan
-0.24239606 0.035472594 -0.773 0.99175191 0.067933604 -0.10868829 nan
-0.23935971 0.035243146 -0.76800001 0.98482966 0.11446562 -0.13041486 nan
-0.23789124 0.035243146 -0.76800001 0.97759175 0.16971219 -0.12454764 nan
-0.36633217 0.034390368 -0.78200001 -0.3905521 -0.61729205 0.68294913 nan
-0.36483693 0.034390368 -0.78200001 -0.35915911 -0.65673041 0.66310614 nan
-0.3619478 0.034258433 -0.77899998 -0.35989013 -0.67380154 0.64534527 nan
-0.35860741 0.034082524 -0.77499998 -0.33160588 -0.70103914 0.63133335 nan
-0.35712558 0.034082524 -0.77499998 -0.27249423 -0.7360853 0.61961704 nan
-0.35564372 0.034082524 -0.77499998 -0.2312482 -0.76141387 0.60561794 nan
-0.35279095 0.033950593 -0.77200001 -0.19442672 -0.77967668 0.5952332 nan
-0.35131481 0.033950593 -0.77200001 -0.17281643 -0.78760612 0.59144831 nan
-0.34802607 0.033774681 -0.76800001 -0.18621467 -0.77876502 0.59904009 nan
-0.34746009 0.033862635 -0.76999998 -0.20746411 -0.76785386 0.60610151 nan
-0.34508914 0.033774681 -0.76800001 -0.23615249 -0.75044316 0.61730623 nan
-0.3445155 0.033862635 -0.76999998 -0.26562226 -0.728854 0.63104421 nan
-0.34393427 0.033950593 -0.77200001 -0.27915034 -0.7319892 0.62150377 nan
-0.34157094 0.033862635 -0.76999998 -0.30913275 -0.69481057 0.64936531 nan
-0.33877361 0.033730704 -0.76700002 -0.31242937 -0.64040661 0.70161748 nan
-0.33730707 0.033730704 -0.76700002 -0.3554484 -0.56824815 0.74212563 nan
-0.33584049 0.033730704 -0.76700002 -0.33223984 -0.56845605 0.75264496 nan
-0.33437395 0.033730704 -0.76700002 -0.27135736 -0.48022363 0.83411658 nan
-0.33290741 0.033730704 -0.76700002 -0.19824558 -0.44057068 0.8755548 nan
-0.33144084 0.033730704 -0.76700002 -0.1825562 -0.39923534 0.89849001 nan
-0.32997429 0.033730704 -0.76700002 -0.14828019 -0.37072849 0.91682792 nan
-0.32850775 0.033730704 -0.76700002 -0.19295402 -0.35367712 0.91524929 nan
-0.32618839 0.03364275 -0.76499999 -0.24527818 -0.36791721 0.89692569 nan
-0.32472566 0.03364275 -0.76499999 -0.30454734 -0.24350797 0.92084461 nan
-0.32326293 0.03364275 -0.76499999 -0.28502864 -0.14239971 0.94788235 nan
-0.3218002 0.03364275 -0.76499999 -0.15211596 -0.3043313 0.94034207 nan
-0.28986877 0.033334907 -0.75800002 -2.1871956e-06 0.28952506 0.95717043 nan
-0.28918043 0.033422861 -0.75999999 -0.15690804 0.15669547 0.97510332 nan
-0.28772724 0.033422861 -0.75999999 -0.29709762 0.13701336 0.94496584 nan
-0.28476736 0.033246953 -0.75599998 -0.25726113 0.20882964 0.94350779 nan
-0.28332186 0.033246953 -0.75599998 -0.2767309 0.28758743 0.91690421 nan
-0.28187633 0.033246953 -0.75599998 -0.02274105 0.69526017 0.71839833 nan
-0.28043082 0.033246953 -0.75599998 0.17312011 0.72974926 0.66143441 nan
-0.27861628 0.033202976 -0.755 0.24762741 0.78477705 0.56816 nan
-0.27717265 0.033202976 -0.755 0.2584357 0.79156893 0.55374163 nan
-0.27609426 0.033246953 -0.75599998 0.24367324 0.78212374 0.57350314 nan
-0.27464873 0.033246953 -0.75599998 0.23530343 0.76914406 0.59417999 nan
-0.27573287 0.033554796 -0.76300001 0.2251979 0.75762922 0.61260414 nan
-0.27499291 0.03364275 -0.76499999 0.21229813 0.73813719 0.64037716 nan
-0.27281508 0.033554796 -0.76300001 0.21633822 0.71996194 0.65943348 nan
-0.27206746 0.03364275 -0.76499999 0.22084999 0.69880956 0.68036062 nan
-0.26989725 0.033554796 -0.76300001 0.19882388 0.66665304 0.71836114 nan
-0.269142 0.03364275 -0.76499999 0.10570269 0.62402761 0.77421993 nan
-0.26767927 0.03364275 -0.76499999 0.050656173 0.58026981 0.81284738 nan
-0.26552054 0.033554796 -0.76300001 0.06719619 0.53294665 0.84347641 nan
-0.26406166 0.033554796 -0.76300001 0.14847736 0.49808162 0.85432386 nan
-0.26329109 0.03364275 -0.76499999 0.22839624 0.46237603 0.85676342 nan
-0.26182836 0.03364275 -0.76499999 0.25898093 0.42787224 0.86594117 nan
-0.26036564 0.03364275 -0.76499999 0.31731436 0.40411609 0.85790551 nan
-0.25890291 0.03364275 -0.76499999 0.39235219 0.38553742 0.83511722 nan
-0.25744018 0.03364275 -0.76499999 0.44850299 0.37101084 0.81313968 nan
-0.25664666 0.033730704 -0.76700002 0.51766908 0.35888252 0.77667379 nan
-0.25518012 0.033730704 -0.76700002 0.58150762 0.33439645 0.74163866 nan
-0.25371358 0.033730704 -0.76700002 0.62145871 0.30127448 0.72320312 nan
-0.25224701 0.033730704 -0.76700002 0.64297867 0.27030131 0.71660012 nan
-0.25241527 0.033950593 -0.77200001 0.65830475 0.18072575 0.73073465 nan
-0.25093916 0.033950593 -0.77200001 0.69059473 0.14733663 0.70807546 nan
-0.24978618 0.03399457 -0.773 0.67613977 0.080604449 0.73235089 nan
-0.24830815 0.03399457 -0.773 0.48890278 -0.20183027 0.84866869 nan
-0.24683014 0.03399457 -0.773 0.33676973 -0.34528989 0.87599152 nan
-0.24598691 0.034082524 -0.77499998 0.83729482 -0.30702567 0.45240748 nan
-0.24450506 0.034082524 -0.77499998 0.97119004 -0.2379218 0.013532816 nan
-0.2430232 0.034082524 -0.77499998 0.99401265 -0.088231869 -0.064450674 nan
-0.24154136 0.034082524 -0.77499998 0.99839109 0.0075218636 -0.056203093 nan
-0.36241242 0.032811001 -0.77999997 -0.3413595 -0.65998107 0.6692524 nan
-0.36045828 0.032768935 -0.77899998 -0.32252136 -0.68692768 0.65123761 nan
