# .PCD v0.7 - Point Cloud Data file format
VERSION 0.7
FIELDS x y z normal_x normal_y normal_z curvature
SIZE 4 4 4 4 4 4 4
TYPE F F F F F F F
COUNT 1 1 1 1 1 1 1
WIDTH 645
HEIGHT 1
VIEWPOINT 0 0 0 1 0 0 0
POINTS 645
DATA ascii
0.27197376 0.0014091905 -0.73699999 -0.41977891 -0.35956147 0.83336747 nan
0.27338296 0.0014091905 -0.73699999 -0.43024123 -0.3193298 0.8443464 nan
0.27479213 0.0014091905 -0.73699999 -0.40942514 -0.27485108 0.86995864 nan
0.27582657 0.0014072785 -0.736 -0.35211781 -0.20350237 0.91356432 nan
0.2764805 0.0014034543 -0.73400003 -0.32611015 -0.14955334 0.93342704 nan
0.27788395 0.0014034543 -0.73400003 -0.33641717 -0.097867526 0.9366138 nan
0.27928743 0.0014034543 -0.73400003 -0.32269895 -0.052804124 0.94502753 nan
0.28069088 0.0014034543 -0.73400003 -0.28088638 0.00019854712 0.95974106 nan
0.28209433 0.0014034543 -0.73400003 -0.25350842 0.05682449 0.96566266 nan
0.28349778 0.0014034543 -0.73400003 -0.22509554 0.12367509 0.96645558 nan
0.28490123 0.0014034543 -0.73400003 -0.19991052 0.19205533 0.9608072 nan
0.28552455 0.0013996301 -0.73199999 -0.18167762 0.26431289 0.9471705 nan
0.28692418 0.0013996301 -0.73199999 -0.16004194 0.32228902 0.93301475 nan
0.28832382 0.0013996301 -0.73199999 -0.16695377 0.38449496 0.90790415 nan
0.28972346 0.0013996301 -0.73199999 -0.16686286 0.43068072 0.88694465 nan
0.29112306 0.0013996301 -0.73199999 -0.13252404 0.46813118 0.87366503 nan
0.2925227 0.0013996301 -0.73199999 -0.096342981 0.50423932 0.85817289 nan
0.29472542 0.0014034543 -0.73400003 -0.10664911 0.54258657 0.833202 nan
0.29612887 0.0014034543 -0.73400003 -0.070036791 0.56576097 0.82158947 nan
0.29753232 0.0014034543 -0.73400003 0.019986145 0.56824613 0.82261586 nan
0.29771397 0.0013977181 -0.73100001 0.064412169 0.5756008 0.81519008 nan
0.29952085 0.0013996301 -0.73199999 0.08230032 0.57621509 0.81314385 nan
0.30050939 0.0013977181 -0.73100001 0.10721453 0.61016965 0.78498274 nan
0.30190712 0.0013977181 -0.73100001 0.17181991 0.5934279 0.78633398 nan
0.3045496 0.0014034543 -0.73400003 0.2181922 0.61432445 0.75828594 nan
0.30595306 0.0014034543 -0.73400003 0.28672174 0.57301992 0.76774913 nan
0.30735651 0.0014034543 -0.73400003 0.17907138 0.64153254 0.74590176 nan
0.30875996 0.0014034543 -0.73400003 0.21257019 0.61211115 0.76166517 nan
0.31016341 0.0014034543 -0.73400003 0.4323194 0.43276578 0.79108387 nan
0.25709599 5.5511151e-17 -0.74699998 -0.94946575 0.303725 -0.079157144 nan
0.2585243 5.5511151e-17 -0.74699998 -0.96679813 0.2461701 -0.06856975 nan
0.2599526 5.5511151e-17 -0.74699998 -0.98763722 0.15092067 -0.042375661 nan
0.26138094 5.5511151e-17 -0.74699998 -0.99950796 0.024196574 -0.019956108 nan
0.26280925 5.5511151e-17 -0.74699998 -0.98934627 -0.13900979 0.043246817 nan
0.26423755 5.5511151e-17 -0.74699998 -0.80455405 -0.49272555 0.33153349 nan
0.26388764 5.5511151e-17 -0.74199998 -0.38610277 -0.63276887 0.67121392 nan
0.26530638 5.5511151e-17 -0.74199998 -0.40821204 -0.6177702 0.67210335 nan
0.26672515 5.5511151e-17 -0.74199998 -0.40928233 -0.59719348 0.68981737 nan
0.26814389 5.5511151e-17 -0.74199998 -0.41702789 -0.57058352 0.70747596 nan
0.26956263 5.5511151e-17 -0.74199998 -0.40369296 -0.54579061 0.73426467 nan
0.27025101 5.5511151e-17 -0.74000001 -0.39933613 -0.51352954 0.75948542 nan
0.27166593 5.5511151e-17 -0.74000001 -0.41620022 -0.48689124 0.76792866 nan
0.27271181 5.5511151e-17 -0.73900002 -0.4382385 -0.45072091 0.77768743 nan
0.27338296 5.5511151e-17 -0.73699999 -0.44203737 -0.4244248 0.790232 nan
0.27441928 5.5511151e-17 -0.736 -0.44084617 -0.38859764 0.80910224 nan
0.27582657 5.5511151e-17 -0.736 -0.40442857 -0.33651519 0.85040873 nan
0.27723384 5.5511151e-17 -0.736 -0.37082189 -0.27930507 0.88570869 nan
0.27864113 5.5511151e-17 -0.736 -0.37340894 -0.22481576 0.90001309 nan
0.27928743 5.5511151e-17 -0.73400003 -0.36996222 -0.1824147 0.91096252 nan
0.28069088 5.5511151e-17 -0.73400003 -0.33194476 -0.13146432 0.934093 nan
0.28209433 5.5511151e-17 -0.73400003 -0.30731574 -0.079216383 0.94830465 nan
0.28349778 5.5511151e-17 -0.73400003 -0.29699686 -0.018727835 0.95469475 nan
0.28412491 5.5511151e-17 -0.73199999 -0.28539249 0.053416353 0.95692104 nan
0.28552455 5.5511151e-17 -0.73199999 -0.26453009 0.12456708 0.95629853 nan
0.28692418 5.5511151e-17 -0.73199999 -0.23912792 0.18634604 0.95293909 nan
0.28832382 5.5511151e-17 -0.73199999 -0.23905279 0.26038027 0.93544424 nan
0.28972346 5.5511151e-17 -0.73199999 -0.22839536 0.30714148 0.92385042 nan
0.29072538 5.5511151e-17 -0.73100001 -0.19187459 0.35034528 0.91675639 nan
0.29212308 5.5511151e-17 -0.73100001 -0.15627228 0.3905744 0.90721041 nan
0.29352081 5.5511151e-17 -0.73100001 -0.17034358 0.43761787 0.88287812 nan
0.29491851 5.5511151e-17 -0.73100001 -0.12231032 0.47082207 0.87370861 nan
0.29631624 5.5511151e-17 -0.73100001 -0.012792811 0.49072888 0.87121838 nan
0.29771397 5.5511151e-17 -0.73100001 0.044925101 0.50531173 0.8617667 nan
0.29911166 5.5511151e-17 -0.73100001 0.065790996 0.51210117 0.85640174 nan
0.29968721 5.5511151e-17 -0.72899997 0.096662194 0.55355442 0.82718438 nan
0.30108109 5.5511151e-17 -0.72899997 0.16995753 0.50421172 0.8466906 nan
0.30371973 5.5511151e-17 -0.73199999 0.20857298 0.54646701 0.81109256 nan
0.30595306 5.5511151e-17 -0.73400003 0.23018533 0.56041867 0.79557878 nan
0.30735651 5.5511151e-17 -0.73400003 0.15614693 0.62480474 0.76500797 nan
0.30875996 5.5511151e-17 -0.73400003 0.10231701 0.71821564 0.68825674 nan
0.25709599 -0.0014283111 -0.74699998 -0.94109929 0.33317626 -0.057668943 nan
0.2585243 -0.0014283111 -0.74699998 -0.96759391 0.25022087 -0.033934724 nan
0.26030064 -0.0014302232 -0.74800003 -0.98976797 0.14266922 0.0022023132 nan
0.26138094 -0.0014283111 -0.74699998 -0.9994511 -0.0039895009 0.032886904 nan
0.26280925 -0.0014283111 -0.74699998 -0.97286206 -0.19739343 0.1207282 nan
0.26423755 -0.0014283111 -0.74699998 -0.71804237 -0.56554908 0.40567151 nan
0.26424327 -0.0014206629 -0.74299997 -0.38595146 -0.65983969 0.64471149 nan
0.26566395 -0.0014206629 -0.74299997 -0.40716296 -0.65207565 0.63954329 nan
0.2670846 -0.0014206629 -0.74299997 -0.41545951 -0.64101827 0.64535964 nan
0.26850528 -0.0014206629 -0.74299997 -0.43197739 -0.62200403 0.65307462 nan
0.26956263 -0.0014187507 -0.74199998 -0.41954359 -0.60549784 0.67628068 nan
0.2709814 -0.0014187507 -0.74199998 -0.41025054 -0.58334315 0.70100302 nan
0.27166593 -0.0014149267 -0.74000001 -0.42718557 -0.56077588 0.70925522 nan
0.27308086 -0.0014149267 -0.74000001 -0.44794804 -0.53433371 0.71681947 nan
0.27412483 -0.0014130146 -0.73900002 -0.45738056 -0.50745732 0.73026717 nan
0.27479213 -0.0014091905 -0.73699999 -0.46728966 -0.47645399 0.74473619 nan
0.27582657 -0.0014072785 -0.736 -0.43852594 -0.44133648 0.7828902 nan
0.27723384 -0.0014072785 -0.736 -0.41757694 -0.39610603 0.8177588 nan
0.27864113 -0.0014072785 -0.736 -0.41523832 -0.33982971 0.84385598 nan
0.2800484 -0.0014072785 -0.736 -0.40209201 -0.29250869 0.86761779 nan
0.28069088 -0.0014034543 -0.73400003 -0.37605903 -0.24259043 0.89427596 nan
0.28209433 -0.0014034543 -0.73400003 -0.36314487 -0.18276 0.91363269 nan
0.28349778 -0.0014034543 -0.73400003 -0.35972989 -0.12058157 0.92523205 nan
0.28490123 -0.0014034543 -0.73400003 -0.35094574 -0.056726735 0.93467593 nan
0.28552455 -0.0013996301 -0.73199999 -0.32883167 0.0041588489 0.94437939 nan
0.28692418 -0.0013996301 -0.73199999 -0.31678891 0.076426432 0.94541198 nan
0.28832382 -0.0013996301 -0.73199999 -0.31448385 0.15141784 0.93710858 nan
0.28972346 -0.0013996301 -0.73199999 -0.28857869 0.20944168 0.93426788 nan
0.29072538 -0.0013977181 -0.73100001 -0.25136057 0.25789765 0.93290216 nan
0.29212308 -0.0013977181 -0.73100001 -0.21806064 0.30403629 0.92736804 nan
0.29352081 -0.0013977181 -0.73100001 -0.22915392 0.35303929 0.90711176 nan
0.29411161 -0.001393894 -0.72899997 -0.17917804 0.37808743 0.90826494 nan
0.29550552 -0.001393894 -0.72899997 -0.060720351 0.39917675 0.91486114 nan
0.29689941 -0.001393894 -0.72899997 0.0094756763 0.41687301 0.90891534 nan
0.29829329 -0.001393894 -0.72899997 0.051747445 0.37872541 0.92406118 nan
0.29968721 -0.001393894 -0.72899997 0.095273562 0.44308102 0.89140463 nan
0.30108109 -0.001393894 -0.72899997 0.13609749 0.40834489 0.90262502 nan
0.30330482 -0.0013977181 -0.73100001 0.18819131 0.46259269 0.8663671 nan
0.30470255 -0.0013977181 -0.73100001 0.20373179 0.51452345 0.83292204 nan
0.306519 -0.0013996301 -0.73199999 0.1268916 0.63503373 0.76199126 nan
0.30791864 -0.0013996301 -0.73199999 -0 0.71982682 0.69415361 nan
0.25737897 -0.0028757427 -0.75199997 -0.91764832 0.39509371 -0.04269303 nan
0.25812852 -0.0028680947 -0.75 -0.94005781 0.33931872 -0.033971347 nan
0.25956255 -0.0028680947 -0.75 -0.96416277 0.26512718 0.0098885689 nan
0.26030064 -0.0028604465 -0.74800003 -0.98666596 0.15110713 0.060472526 nan
0.26138094 -0.0028566222 -0.74699998 -0.99433804 -0.01905519 0.10454126 nan
0.26280925 -0.0028566222 -0.74699998 -0.93980819 -0.25443813 0.22808284 nan
0.26423755 -0.0028566222 -0.74699998 -0.62043476 -0.6166991 0.48450285 nan
0.26495457 -0.002848974 -0.745 -0.3893739 -0.66582233 0.63644999 nan
0.26637906 -0.002848974 -0.745 -0.41542846 -0.65748209 0.62859887 nan
0.2670846 -0.0028413257 -0.74299997 -0.43056741 -0.64725125 0.6290291 nan
0.26850528 -0.0028413257 -0.74299997 -0.4416292 -0.64027423 0.62850022 nan
0.26992592 -0.0028413257 -0.74299997 -0.43157673 -0.63313615 0.64255744 nan
0.2713466 -0.0028413257 -0.74299997 -0.42670056 -0.61822599 0.66009337 nan
0.27240014 -0.0028375015 -0.74199998 -0.4409737 -0.5981589 0.66913986 nan
0.27308086 -0.0028298534 -0.74000001 -0.46271175 -0.57780248 0.67234075 nan
0.27449578 -0.0028298534 -0.74000001 -0.4719348 -0.55616087 0.68407804 nan
0.27591071 -0.0028298534 -0.74000001 -0.48029822 -0.53542215 0.69472057 nan
0.27620134 -0.0028183809 -0.73699999 -0.46042341 -0.51685148 0.72171646 nan
0.27761051 -0.0028183809 -0.73699999 -0.44713464 -0.48870695 0.74915695 nan
0.27864113 -0.0028145569 -0.736 -0.4513219 -0.44383198 0.77415878 nan
0.2800484 -0.0028145569 -0.736 -0.44461939 -0.39545569 0.80369669 nan
0.2814557 -0.0028145569 -0.736 -0.42556775 -0.34324363 0.83730274 nan
0.28209433 -0.0028069087 -0.73400003 -0.41674158 -0.29275811 0.86059219 nan
0.28349778 -0.0028069087 -0.73400003 -0.41252589 -0.24600735 0.87709904 nan
0.28490123 -0.0028069087 -0.73400003 -0.4041166 -0.19006929 0.89474201 nan
0.28552455 -0.0027992602 -0.73199999 -0.39794978 -0.12438674 0.90893555 nan
0.28692418 -0.0027992602 -0.73199999 -0.39349109 -0.060580805 0.91733027 nan
0.28832382 -0.0027992602 -0.73199999 -0.38725826 0.011815444 0.9218955 nan
0.28932765 -0.0027954362 -0.73100001 -0.35624456 0.076670848 0.93124187 nan
0.29072538 -0.0027954362 -0.73100001 -0.31304199 0.11433136 0.94283247 nan
0.29132384 -0.0027877879 -0.72899997 -0.28048837 0.15876976 0.94663531 nan
0.29271773 -0.0027877879 -0.72899997 -0.27811468 0.20981304 0.93735301 nan
0.29411161 -0.0027877879 -0.72899997 -0.2111277 0.23631831 0.94846129 nan
0.29550552 -0.0027877879 -0.72899997 -0.089703165 0.25017983 0.96403497 nan
0.29689941 -0.0027877879 -0.72899997 -0.017535865 0.27347142 0.96172029 nan
0.29829329 -0.0027877879 -0.72899997 0.021260584 0.22192043 0.97483301 nan
0.29968721 -0.0027877879 -0.72899997 0.072078764 0.30383161 0.94999528 nan
0.30066809 -0.0027839637 -0.72799999 0.11217353 0.2968463 0.94831395 nan
0.30247498 -0.0027877879 -0.72899997 0.16707522 0.38423818 0.90799063 nan
0.30470255 -0.0027954362 -0.73100001 0.12092645 0.43489933 0.89232242 nan
0.30610028 -0.0027954362 -0.73100001 0.071657062 0.55523515 0.82860076 nan
0.30749798 -0.0027954362 -0.73100001 -0 0.53844029 0.84266371 nan
0.25696215 -0.0043308227 -0.755 -0.89066797 0.4541741 -0.020894844 nan
0.25737897 -0.0043136142 -0.75199997 -0.90857393 0.41728327 -0.019182723 nan
0.25881684 -0.0043136142 -0.75199997 -0.92920923 0.36952686 0.0044739097 nan
0.26025471 -0.0043136142 -0.75199997 -0.95325601 0.29550272 0.063096501 nan
0.26169258 -0.0043136142 -0.75199997 -0.97494042 0.17508513 0.13724534 nan
0.26173085 -0.0042906697 -0.74800003 -0.97835207 -0.019635776 0.20601414 nan
0.26316106 -0.0042906697 -0.74800003 -0.87205148 -0.30510223 0.38267332 nan
0.26459131 -0.0042906697 -0.74800003 -0.50782198 -0.6464116 0.56944609 nan
0.26602152 -0.0042906697 -0.74800003 -0.40456587 -0.66151327 0.63144809 nan
0.26709417 -0.0042849332 -0.74699998 -0.42876065 -0.65173525 0.62562406 nan
0.26852247 -0.0042849332 -0.74699998 -0.43187511 -0.6519565 0.62324673 nan
0.26922804 -0.0042734612 -0.745 -0.44132707 -0.64826775 0.62046701 nan
0.27065253 -0.0042734612 -0.745 -0.44074062 -0.64163733 0.62773347 nan
0.27207702 -0.0042734612 -0.745 -0.44089377 -0.63311005 0.63622653 nan
0.27240014 -0.0042562522 -0.74199998 -0.45452827 -0.62072265 0.63883287 nan
0.27381891 -0.0042562522 -0.74199998 -0.47242895 -0.60390669 0.64195615 nan
0.27449578 -0.0042447802 -0.74000001 -0.48030519 -0.58793646 0.65087461 nan
0.27591071 -0.0042447802 -0.74000001 -0.48645064 -0.56954432 0.66255951 nan
0.27695087 -0.0042390442 -0.73900002 -0.46508393 -0.56175292 0.68420064 nan
0.27836388 -0.0042390442 -0.73900002 -0.46654952 -0.54616976 0.69572282 nan
0.27901971 -0.0042275712 -0.73699999 -0.47968215 -0.5198065 0.70689905 nan
0.28042892 -0.0042275712 -0.73699999 -0.4754791 -0.48442978 0.73433471 nan
0.2814557 -0.0042218352 -0.736 -0.45295557 -0.45233655 0.76825964 nan
0.28286296 -0.0042218352 -0.736 -0.43435252 -0.41662118 0.79860175 nan
0.28427023 -0.0042218352 -0.736 -0.43574378 -0.38275927 0.81463045 nan
0.28490123 -0.0042103631 -0.73400003 -0.44723102 -0.34345385 0.82584727 nan
0.28552455 -0.0041988906 -0.73199999 -0.43898436 -0.29306006 0.84935784 nan
0.28692418 -0.0041988906 -0.73199999 -0.43872684 -0.2462416 0.86422449 nan
0.28832382 -0.0041988906 -0.73199999 -0.44581959 -0.18292496 0.87623245 nan
0.28932765 -0.0041931542 -0.73100001 -0.3951754 -0.13241141 0.90901238 nan
0.29072538 -0.0041931542 -0.73100001 -0.34423164 -0.095156789 0.93405014 nan
0.29132384 -0.0041816817 -0.72899997 -0.33023098 -0.057206072 0.94216508 nan
0.29271773 -0.0041816817 -0.72899997 -0.33121693 -0.011297109 0.94348699 nan
0.29411161 -0.0041816817 -0.72899997 -0.24849486 0.030667474 0.96814758 nan
0.29550552 -0.0041816817 -0.72899997 -0.12282681 0.066915706 0.99016964 nan
0.29689941 -0.0041816817 -0.72899997 -0.047185946 0.10851563 0.99297422 nan
0.29829329 -0.0041816817 -0.72899997 0.004347322 0.079082176 0.9968586 nan
0.29968721 -0.0041816817 -0.72899997 0.059065502 0.16648205 0.98427379 nan
0.30108109 -0.0041816817 -0.72899997 0.090444058 0.12507671 0.98801601 nan
0.30247498 -0.0041816817 -0.72899997 0.11859744 0.23695144 0.96425545 nan
0.30386889 -0.0041816817 -0.72899997 0.094093747 0.20128696 0.97500247 nan
0.30526277 -0.0041816817 -0.72899997 0.02043198 0.38910133 0.92096835 nan
0.30665666 -0.0041816817 -0.72899997 -0.079232343 0.27688327 0.95763135 nan
0.25585699 -0.0057820785 -0.75599998 -0.90587789 0.42353505 0.0018096978 nan
0.25696215 -0.0057744305 -0.755 -0.9254657 0.37879953 -0.0048998864 nan
0.25840577 -0.0057744305 -0.755 -0.94043219 0.3399812 -2.6507234e-05 nan
0.25916103 -0.005759134 -0.75300002 -0.94367641 0.32827106 0.041387048 nan
0.26060081 -0.005759134 -0.75300002 -0.95886385 0.24761443 0.13880657 nan
0.26204062 -0.005759134 -0.75300002 -0.96480894 0.090153776 0.24701391 nan
0.26243067 -0.0057361894 -0.75 -0.92721695 -0.14587305 0.34494916 nan
0.2638647 -0.0057361894 -0.75 -0.6756801 -0.48124972 0.55843985 nan
0.26459131 -0.0057208929 -0.74800003 -0.37095177 -0.64549524 0.66763061 nan
0.26602152 -0.0057208929 -0.74800003 -0.4170908 -0.64258498 0.64274395 nan
0.26745173 -0.0057208929 -0.74800003 -0.43504792 -0.63628495 0.63708299 nan
0.26852247 -0.0057132444 -0.74699998 -0.43671915 -0.63979495 0.63240719 nan
0.26995081 -0.0057132444 -0.74699998 -0.45704371 -0.63732016 0.62043065 nan
0.27137911 -0.0057132444 -0.74699998 -0.45181331 -0.64035922 0.62113202 nan
0.27280742 -0.0057132444 -0.74699998 -0.4479931 -0.63564837 0.62869179 nan
0.27240014 -0.0056750029 -0.74199998 -0.46401691 -0.62771904 0.62502563 nan
0.27381891 -0.0056750029 -0.74199998 -0.48834032 -0.61175054 0.62232232 nan
0.27449578 -0.0056597069 -0.74000001 -0.49552354 -0.60315669 0.6250267 nan
0.27591071 -0.0056597069 -0.74000001 -0.49454463 -0.59240866 0.63598555 nan
0.27695087 -0.0056520584 -0.73900002 -0.46926302 -0.58665448 0.66002178 nan
0.27836388 -0.0056520584 -0.73900002 -0.46869111 -0.57826751 0.6677838 nan
0.27901971 -0.0056367619 -0.73699999 -0.48516861 -0.57098174 0.6622622 nan
0.28042892 -0.0056367619 -0.73699999 -0.48168892 -0.55686307 0.67666775 nan
0.2814557 -0.0056291139 -0.736 -0.45968223 -0.54001069 0.70503944 nan
0.28286296 -0.0056291139 -0.736 -0.44848117 -0.51794499 0.72842133 nan
0.28427023 -0.0056291139 -0.736 -0.44675893 -0.48848438 0.74952608 nan
0.28490123 -0.0056138174 -0.73400003 -0.45323277 -0.46885929 0.75812334 nan
0.28630468 -0.0056138174 -0.73400003 -0.45593646 -0.43817306 0.77467829 nan
0.28770813 -0.0056138174 -0.73400003 -0.4645268 -0.40514562 0.7874465 nan
0.28832382 -0.0055985204 -0.73199999 -0.46751595 -0.36471796 0.80523884 nan
0.28932765 -0.0055908724 -0.73100001 -0.41940761 -0.33962563 0.84187388 nan
0.29072538 -0.0055908724 -0.73100001 -0.37386006 -0.29236996 0.88019794 nan
0.29132384 -0.0055755759 -0.72899997 -0.35754186 -0.24496667 0.90119654 nan
0.29271773 -0.0055755759 -0.72899997 -0.36455479 -0.21350038 0.90637589 nan
0.29411161 -0.0055755759 -0.72899997 -0.29463881 -0.17707951 0.93905848 nan
0.29550552 -0.0055755759 -0.72899997 -0.17548381 -0.13789974 0.97477639 nan
0.29689941 -0.0055755759 -0.72899997 -0.091911159 -0.088078789 0.99186414 nan
0.29788414 -0.0055679274 -0.72799999 -0.048848342 -0.14656608 0.98799407 nan
0.29968721 -0.0055755759 -0.72899997 0.016680039 -0.016660618 0.99972212 nan
0.30066809 -0.0055679274 -0.72799999 0.050037839 -0.035709687 0.99810869 nan
0.30247498 -0.0055755759 -0.72899997 0.10421158 0.028366335 0.99415052 nan
0.30386889 -0.0055755759 -0.72899997 0.055721764 -0.083448045 0.99495298 nan
0.30526277 -0.0055755759 -0.72899997 -0.022615239 0.045156255 0.99872398 nan
0.30665666 -0.0055755759 -0.72899997 -0.081018724 -0.16189429 0.98347664 nan
0.25585699 -0.0072275982 -0.75599998 -0.9415282 0.33636156 0.019634997 nan
0.25730249 -0.0072275982 -0.75599998 -0.95891017 0.28346878 0.011697331 nan
0.25840577 -0.0072180382 -0.755 -0.96993989 0.24279536 0.016337646 nan
0.25984937 -0.0072180382 -0.755 -0.96825409 0.23617429 0.08188764 nan
0.26060081 -0.0071989177 -0.75300002 -0.96186405 0.13176163 0.23970045 nan
0.26204062 -0.0071989177 -0.75300002 -0.91834229 -0.075728282 0.38847494 nan
0.2634804 -0.0071989177 -0.75300002 -0.79004526 -0.35582924 0.49921343 nan
0.26456833 -0.0071893567 -0.75199997 -0.51111937 -0.62767386 0.58718169 nan
0.26529875 -0.0071702367 -0.75 -0.3737213 -0.64245719 0.66901505 nan
0.26673281 -0.0071702367 -0.75 -0.41954666 -0.63495648 0.6486994 nan
0.26745173 -0.0071511162 -0.74800003 -0.43776208 -0.63316679 0.63832933 nan
0.26888198 -0.0071511162 -0.74800003 -0.43417317 -0.63289422 0.64104491 nan
0.26995081 -0.0071415552 -0.74699998 -0.44163272 -0.63859814 0.63020074 nan
0.27137911 -0.0071415552 -0.74699998 -0.44234169 -0.6480273 0.61999547 nan
0.27280742 -0.0071415552 -0.74699998 -0.45247108 -0.6427995 0.6181252 nan
0.27350152 -0.0071224351 -0.745 -0.47147605 -0.63736737 0.60948604 nan
0.27381891 -0.0070937537 -0.74199998 -0.48722273 -0.62932521 0.60544503 nan
0.27523765 -0.0070937537 -0.74199998 -0.48613316 -0.62880033 0.60686469 nan
0.27665639 -0.0070937537 -0.74199998 -0.48832282 -0.62619156 0.6078034 nan
0.27732563 -0.0070746336 -0.74000001 -0.4618926 -0.62689865 0.62741804 nan
0.27874056 -0.0070746336 -0.74000001 -0.45463887 -0.61917096 0.64025825 nan
0.2797769 -0.0070650731 -0.73900002 -0.46801028 -0.61299467 0.63655633 nan
0.28118992 -0.0070650731 -0.73900002 -0.47445869 -0.60609883 0.63838333 nan
0.28260294 -0.0070650731 -0.73900002 -0.46060652 -0.59502751 0.65862268 nan
0.28324729 -0.0070459521 -0.73699999 -0.45147723 -0.58232498 0.67606652 nan
0.28427023 -0.0070363921 -0.736 -0.44689119 -0.5623107 0.69576925 nan
0.28567752 -0.0070363921 -0.736 -0.45305136 -0.54810923 0.70307958 nan
0.28708479 -0.0070363921 -0.736 -0.45922199 -0.52465683 0.71683365 nan
0.28770813 -0.0070172716 -0.73400003 -0.46818465 -0.49948779 0.72891372 nan
0.28911158 -0.0070172716 -0.73400003 -0.46650922 -0.47879988 0.74372017 nan
0.28972346 -0.0069981506 -0.73199999 -0.42729521 -0.46984679 0.7724396 nan
0.29072538 -0.0069885906 -0.73100001 -0.40539706 -0.44537207 0.79830879 nan
0.29212308 -0.0069885906 -0.73100001 -0.38062191 -0.40765017 0.83002919 nan
0.29352081 -0.0069885906 -0.73100001 -0.37092152 -0.3877579 0.84383714 nan
0.29411161 -0.0069694696 -0.72899997 -0.30389449 -0.36058527 0.88183135 nan
0.29550552 -0.0069694696 -0.72899997 -0.1996664 -0.3348881 0.92086005 nan
0.29689941 -0.0069694696 -0.72899997 -0.13909331 -0.29584149 0.94505602 nan
0.29829329 -0.0069694696 -0.72899997 0.13110152 -0.47994 0.86745024 nan
0.29927611 -0.0069599096 -0.72799999 -0.049786344 -0.22702369 0.97261578 nan
0.30066809 -0.0069599096 -0.72799999 0.012141654 -0.54286212 0.83973414 nan
0.30247498 -0.0069694696 -0.72899997 0.085330889 -0.12313778 0.98871422 nan
0.30386889 -0.0069694696 -0.72899997 0.027421113 -0.24621938 0.96882606 nan
0.30526277 -0.0069694696 -0.72899997 -0.021781547 -0.26108775 0.96506929 nan
0.30665666 -0.0069694696 -0.72899997 -0.16114484 -0.28179806 0.94584465 nan
0.25508451 -0.0086960634 -0.75800002 -0.94499731 0.32342738 0.048731711 nan
0.25585699 -0.0086731175 -0.75599998 -0.96294171 0.26658812 0.040916119 nan
0.25730249 -0.0086731175 -0.75599998 -0.97830254 0.20470169 0.0319589 nan
0.25874802 -0.0086731175 -0.75599998 -0.98851931 0.1467827 0.035839539 nan
0.25984937 -0.0086616455 -0.755 -0.98518151 0.11148337 0.13034058 nan
0.26129296 -0.0086616455 -0.755 -0.9299044 -0.035908751 0.36604434 nan
0.26273659 -0.0086616455 -0.755 -0.78473318 -0.29316723 0.54611993 nan
0.2634804 -0.0086387014 -0.75300002 -0.54175997 -0.56134284 0.62561208 nan
0.26492018 -0.0086387014 -0.75300002 -0.38398674 -0.67025679 0.63506681 nan
0.2660062 -0.0086272284 -0.75199997 -0.3763068 -0.66762584 0.64239317 nan
0.26744407 -0.0086272284 -0.75199997 -0.40987515 -0.66285259 0.62660104 nan
0.26816684 -0.0086042834 -0.75 -0.42113477 -0.66467309 0.61713457 nan
0.2696009 -0.0086042834 -0.75 -0.41521111 -0.66484344 0.62095326 nan
0.27031219 -0.0085813394 -0.74800003 -0.41669577 -0.66802949 0.61652356 nan
0.2717424 -0.0085813394 -0.74800003 -0.4269765 -0.67118448 0.60597229 nan
0.27317265 -0.0085813394 -0.74800003 -0.44009608 -0.66851628 0.59950101 nan
0.27423573 -0.0085698664 -0.74699998 -0.454656 -0.66674215 0.59054464 nan
0.27566403 -0.0085698664 -0.74699998 -0.4697994 -0.66337597 0.58242673 nan
0.27560857 -0.0085239764 -0.74299997 -0.47111225 -0.65862417 0.58674294 nan
0.27702925 -0.0085239764 -0.74299997 -0.47006071 -0.6582402 0.58801603 nan
0.27807516 -0.0085125044 -0.74199998 -0.45158812 -0.66226655 0.59788895 nan
0.2794939 -0.0085125044 -0.74199998 -0.45047423 -0.65770811 0.60373271 nan
0.28015548 -0.0084895603 -0.74000001 -0.46246818 -0.64939338 0.60366499 nan
0.2815704 -0.0084895603 -0.74000001 -0.46794182 -0.64494747 0.60421294 nan
0.28260294 -0.0084780883 -0.73900002 -0.4552497 -0.64038849 0.61858732 nan
0.28401595 -0.0084780883 -0.73900002 -0.45299283 -0.62754786 0.63323063 nan
0.28465647 -0.0084551424 -0.73699999 -0.44779751 -0.61431497 0.64968807 nan
0.28567752 -0.0084436703 -0.736 -0.45570743 -0.59854245 0.6588456 nan
0.28708479 -0.0084436703 -0.736 -0.46891877 -0.58128595 0.6649977 nan
0.28849208 -0.0084436703 -0.736 -0.47128165 -0.56464827 0.677544 nan
0.28911158 -0.0084207263 -0.73400003 -0.45421726 -0.5554738 0.69651663 nan
0.29051504 -0.0084207263 -0.73400003 -0.41483998 -0.549362 0.72533387 nan
0.29112306 -0.0083977813 -0.73199999 -0.40155157 -0.53792101 0.74121338 nan
0.2925227 -0.0083977813 -0.73199999 -0.38152093 -0.51446563 0.76796281 nan
0.29392233 -0.0083977813 -0.73199999 -0.37295991 -0.50091064 0.78101826 nan
0.29411161 -0.0083633633 -0.72899997 -0.31447321 -0.4846015 0.81625241 nan
0.29631624 -0.0083863083 -0.73100001 -0.21874762 -0.46092176 0.86005849 nan
0.29689941 -0.0083633633 -0.72899997 0.028338185 -0.40379006 0.91441262 nan
0.29829329 -0.0083633633 -0.72899997 0.35882604 -0.56888813 0.74000686 nan
0.29927611 -0.0083518913 -0.72799999 0.16262166 -0.54011452 0.82573026 nan
0.30066809 -0.0083518913 -0.72799999 0.36515498 -0.71931094 0.59097689 nan
0.30247498 -0.0083633633 -0.72899997 0.064678967 -0.65051055 0.75673807 nan
0.30386889 -0.0083633633 -0.72899997 0.34513319 -0.77470839 0.52982068 nan
0.30526277 -0.0083633633 -0.72899997 -0.11052912 -0.30940405 0.94448531 nan
0.30665666 -0.0083633633 -0.72899997 -0.080346771 -0.94532096 0.3160896 nan
0.25508451 -0.010145407 -0.75800002 -0.97046906 0.22906809 0.075615481 nan
0.25653386 -0.010145407 -0.75800002 -0.98369634 0.1664941 0.06797868 nan
0.25730249 -0.010118637 -0.75599998 -0.99342114 0.09716174 0.060614903 nan
0.25874802 -0.010118637 -0.75599998 -0.9975242 0.022727307 0.066551074 nan
0.26019353 -0.010118637 -0.75599998 -0.97990847 -0.069448933 0.18696564 nan
0.26163906 -0.010118637 -0.75599998 -0.82201874 -0.30028424 0.48385385 nan
0.26273659 -0.010105253 -0.755 -0.53434521 -0.55405492 0.63835609 nan
0.26418018 -0.010105253 -0.755 -0.39125171 -0.6506083 0.65086937 nan
0.26492018 -0.010078485 -0.75300002 -0.38516116 -0.65492004 0.65017742 nan
0.26635996 -0.010078485 -0.75300002 -0.37538156 -0.65661627 0.65417421 nan
0.26744407 -0.010065099 -0.75199997 -0.40342784 -0.65978003 0.63398439 nan
0.26888195 -0.010065099 -0.75199997 -0.41668966 -0.66686958 0.61778206 nan
0.2696009 -0.010038331 -0.75 -0.41167229 -0.66954774 0.618249 nan
0.27103493 -0.010038331 -0.75 -0.41004524 -0.67441499 0.61402553 nan
0.2717424 -0.010011562 -0.74800003 -0.42101282 -0.67610085 0.60467833 nan
0.27317265 -0.010011562 -0.74800003 -0.43327186 -0.67870426 0.59298903 nan
0.27460286 -0.010011562 -0.74800003 -0.44997308 -0.6765582 0.58291805 nan
0.27603307 -0.010011562 -0.74800003 -0.47004029 -0.67474514 0.56901765 nan
0.27635047 -0.0099714091 -0.745 -0.47059485 -0.67169595 0.57215828 nan
0.27777496 -0.0099714091 -0.745 -0.46350643 -0.67130399 0.57837081 nan
0.27844992 -0.0099446392 -0.74299997 -0.4436653 -0.6743238 0.59029531 nan
0.27987057 -0.0099446392 -0.74299997 -0.44661915 -0.67067271 0.59222412 nan
0.28091264 -0.0099312551 -0.74199998 -0.45757633 -0.66426557 0.59107977 nan
0.2815704 -0.0099044871 -0.74000001 -0.4620586 -0.66161549 0.59056485 nan
0.28298533 -0.0099044871 -0.74000001 -0.45938414 -0.66013694 0.59429407 nan
0.28440025 -0.0099044871 -0.74000001 -0.46165529 -0.64933604 0.60434848 nan
0.28542897 -0.0098911021 -0.73900002 -0.45304224 -0.64565241 0.6147241 nan
0.28567752 -0.009850949 -0.736 -0.46105132 -0.63160503 0.62330317 nan
0.28630468 -0.00982418 -0.73400003 -0.46389833 -0.6225453 0.63026649 nan
0.28770813 -0.00982418 -0.73400003 -0.45903569 -0.61917651 0.63710797 nan
0.28911158 -0.00982418 -0.73400003 -0.44429791 -0.61525911 0.65119547 nan
0.29051504 -0.00982418 -0.73400003 -0.40896308 -0.61467105 0.67448395 nan
0.29191852 -0.00982418 -0.73400003 -0.4048211 -0.60681325 0.68403041 nan
0.2925227 -0.009797411 -0.73199999 -0.38456312 -0.58840013 0.71126395 nan
0.29392233 -0.009797411 -0.73199999 -0.36728945 -0.57197493 0.73344612 nan
0.29532197 -0.009797411 -0.73199999 -0.31490073 -0.56321961 0.76395106 nan
0.29631624 -0.009784027 -0.73100001 -0.23881285 -0.54447871 0.80405933 nan
0.29771397 -0.009784027 -0.73100001 0.15540224 -0.46579954 0.87113774 nan
0.29829329 -0.0097572571 -0.72899997 0.50385857 -0.5194602 0.69013596 nan
0.29968721 -0.0097572571 -0.72899997 0.41596156 -0.5915395 0.69069314 nan
0.30108109 -0.0097572571 -0.72899997 0.50817543 -0.67744029 0.53181982 nan
0.30247498 -0.0097572571 -0.72899997 0.41656256 -0.74453062 0.52167982 nan
0.30470255 -0.009784027 -0.73100001 0.44369236 -0.814358 0.37410972 nan
0.30526277 -0.0097572571 -0.72899997 0.34752816 -0.8334192 0.42969355 nan
0.30749798 -0.009784027 -0.73100001 0.41017392 -0.86893171 0.27697498 nan
0.25430438 -0.011625343 -0.75999999 -0.97493148 0.19415975 0.10867646 nan
0.25575754 -0.011625343 -0.75999999 -0.98670554 0.12250759 0.10679017 nan
0.25721073 -0.011625343 -0.75999999 -0.9936282 0.054749086 0.098515965 nan
0.25798321 -0.011594751 -0.75800002 -0.99551022 -0.017716745 0.092981838 nan
0.25943255 -0.011594751 -0.75800002 -0.98957354 -0.10166138 0.10202559 nan
0.26019353 -0.011564157 -0.75599998 -0.93556929 -0.24767062 0.25173298 nan
0.26163906 -0.011564157 -0.75599998 -0.62586647 -0.53208661 0.57024127 nan
0.26308459 -0.011564157 -0.75599998 -0.40640029 -0.63942838 0.65266383 nan
0.26418018 -0.011548861 -0.755 -0.39876702 -0.63656086 0.66013265 nan
0.26492018 -0.011518268 -0.75300002 -0.39147905 -0.63810045 0.66300225 nan
0.26635996 -0.011518268 -0.75300002 -0.37708312 -0.63870633 0.67071795 nan
0.26779974 -0.011518268 -0.75300002 -0.3951892 -0.63904661 0.65988249 nan
0.26888195 -0.011502971 -0.75199997 -0.40804231 -0.65446639 0.63653392 nan
0.27031982 -0.011502971 -0.75199997 -0.40569806 -0.66101861 0.63123959 nan
0.27175769 -0.011502971 -0.75199997 -0.40112233 -0.67183465 0.62268692 nan
0.27246898 -0.011472379 -0.75 -0.41150555 -0.67510986 0.61228257 nan
0.27317265 -0.011441786 -0.74800003 -0.42484742 -0.68025023 0.59729749 nan
0.27460286 -0.011441786 -0.74800003 -0.44467518 -0.67647237 0.58706832 nan
0.27603307 -0.011441786 -0.74800003 -0.46077564 -0.6815713 0.56845981 nan
0.27709234 -0.011426489 -0.74699998 -0.46554941 -0.68139756 0.56476653 nan
0.27852067 -0.011426489 -0.74699998 -0.4590939 -0.68344843 0.56756598 nan
0.27919945 -0.011395896 -0.745 -0.44352239 -0.68704921 0.57554424 nan
0.27987057 -0.011365303 -0.74299997 -0.45281881 -0.67633426 0.58097064 nan
0.28091264 -0.011350006 -0.74199998 -0.46037573 -0.67195857 0.58010858 nan
0.28233141 -0.011350006 -0.74199998 -0.46180019 -0.66734326 0.58428895 nan
0.28298533 -0.011319414 -0.74000001 -0.46328488 -0.66258436 0.58851433 nan
0.28516892 -0.011350006 -0.74199998 -0.46399775 -0.65509731 0.5962832 nan
0.28581518 -0.011319414 -0.74000001 -0.45477459 -0.65735292 0.60088861 nan
0.28567752 -0.011258228 -0.736 -0.46679592 -0.64479941 0.60525644 nan
0.28708479 -0.011258228 -0.736 -0.45896196 -0.64396 0.61210239 nan
0.28849208 -0.011258228 -0.736 -0.45099851 -0.64297056 0.61902279 nan
0.28989935 -0.011258228 -0.736 -0.43254188 -0.64321494 0.63180846 nan
0.29130664 -0.011258228 -0.736 -0.39610344 -0.64793718 0.65059942 nan
0.29191852 -0.011227635 -0.73400003 -0.40423727 -0.64307404 0.65042144 nan
0.29332197 -0.011227635 -0.73400003 -0.39638457 -0.63316858 0.66481346 nan
0.29472542 -0.011227635 -0.73400003 -0.37536162 -0.62004501 0.6889469 nan
0.29532197 -0.011197041 -0.73199999 -0.32056141 -0.61378825 0.72145981 nan
0.29672158 -0.011197041 -0.73199999 -0.24549691 -0.6002422 0.76120996 nan
0.29771397 -0.011181745 -0.73100001 0.24384785 -0.58129126 0.77629811 nan
0.29829329 -0.011151152 -0.72899997 0.56880409 -0.5358007 0.62400281 nan
0.29968721 -0.011151152 -0.72899997 0.56024498 -0.51899308 0.64557856 nan
0.30108109 -0.011151152 -0.72899997 0.62003803 -0.58343112 0.52455783 nan
0.30330482 -0.011181745 -0.73100001 0.55441654 -0.67947155 0.48056307 nan
0.30470255 -0.011181745 -0.73100001 0.56111425 -0.7330299 0.38447094 nan
0.30610028 -0.011181745 -0.73100001 0.45169184 -0.8311156 0.32437831 nan
0.30749798 -0.011181745 -0.73100001 0.42956668 -0.8653037 0.258306 nan
0.30805054 -0.011151152 -0.72899997 0.52259487 -0.80386782 0.28406161 nan
0.25575754 -0.013078511 -0.75999999 -0.98871374 0.045663275 0.1426888 nan
0.25721073 -0.013078511 -0.75999999 -0.99082828 -0.028152134 0.13216133 nan
0.25866389 -0.013078511 -0.75999999 -0.98629594 -0.10200795 0.1296715 nan
0.26011705 -0.013078511 -0.75999999 -0.97025877 -0.1941707 0.14455298 nan
0.2608819 -0.013044095 -0.75800002 -0.86963242 -0.37609991 0.31982544 nan
0.26233125 -0.013044095 -0.75800002 -0.51887119 -0.62737066 0.58067095 nan
0.26378056 -0.013044095 -0.75800002 -0.41343316 -0.64185429 0.64582974 nan
0.26453009 -0.013009677 -0.75599998 -0.40165353 -0.63816524 0.65682542 nan
0.26562381 -0.012992469 -0.755 -0.39192331 -0.6400165 0.66088963 nan
0.2670674 -0.012992469 -0.755 -0.37960869 -0.64197773 0.66615444 nan
0.26779974 -0.012958052 -0.75300002 -0.38023496 -0.64253378 0.66526073 nan
0.26923952 -0.012958052 -0.75300002 -0.38616493 -0.65305489 0.65145671 nan
0.2706793 -0.012958052 -0.75300002 -0.38546714 -0.66654825 0.63806605 nan
0.27211908 -0.012958052 -0.75300002 -0.38348767 -0.67693436 0.62824917 nan
0.27319556 -0.012940843 -0.75199997 -0.39747974 -0.68240213 0.61346322 nan
0.27390304 -0.012906426 -0.75 -0.41723087 -0.6878345 0.59397143 nan
0.27460286 -0.012872009 -0.74800003 -0.43229294 -0.68495744 0.58647782 nan
0.27603307 -0.012872009 -0.74800003 -0.44698858 -0.68906945 0.5704248 nan
0.27746332 -0.012872009 -0.74800003 -0.45998228 -0.6850543 0.56490439 nan
0.27852067 -0.0128548 -0.74699998 -0.45208892 -0.68614721 0.56992769 nan
0.27994898 -0.0128548 -0.74699998 -0.45108396 -0.68594003 0.57097232 nan
0.28062394 -0.012820383 -0.745 -0.46418968 -0.67581773 0.57253677 nan
0.28129125 -0.012785966 -0.74299997 -0.46735936 -0.66850388 0.57851344 nan
0.28233141 -0.012768757 -0.74199998 -0.47671959 -0.66102231 0.57947218 nan
0.28375015 -0.012768757 -0.74199998 -0.48318425 -0.65127724 0.58512467 nan
0.28516892 -0.012768757 -0.74199998 -0.47716442 -0.64064163 0.60157496 nan
0.28581518 -0.012734341 -0.74000001 -0.47121319 -0.64099395 0.60587537 nan
0.2880064 -0.012768757 -0.74199998 -0.48162273 -0.63116848 0.60800153 nan
0.28708479 -0.012665506 -0.736 -0.46640804 -0.6314792 0.61943322 nan
0.28888404 -0.012682714 -0.73699999 -0.46015987 -0.63169199 0.62387353 nan
0.28989935 -0.012665506 -0.736 -0.43675134 -0.63724267 0.63495672 nan
0.29130664 -0.012665506 -0.736 -0.40146473 -0.6450237 0.65020794 nan
0.29271391 -0.012665506 -0.736 -0.41413268 -0.64125937 0.64597261 nan
0.29332197 -0.012631089 -0.73400003 -0.40547821 -0.63967854 0.65299219 nan
0.29472542 -0.012631089 -0.73400003 -0.38025269 -0.63922781 0.66842782 nan
0.29612887 -0.012631089 -0.73400003 -0.3254846 -0.63924861 0.69672167 nan
0.29753232 -0.012631089 -0.73400003 -0.10155129 -0.6172334 0.78019881 nan
0.29812121 -0.012596671 -0.73199999 0.38243735 -0.59307224 0.70852453 nan
0.29911166 -0.012579463 -0.73100001 0.61356091 -0.53260124 0.58299142 nan
0.30050939 -0.012579463 -0.73100001 0.61691415 -0.52723277 0.58433092 nan
0.30108109 -0.012545045 -0.72899997 0.66267556 -0.56082904 0.49631837 nan
0.30330482 -0.012579463 -0.73100001 0.66491461 -0.56829828 0.48469123 nan
0.30470255 -0.012579463 -0.73100001 0.6655243 -0.62442076 0.40887177 nan
0.30610028 -0.012579463 -0.73100001 0.57274193 -0.7426973 0.34694013 nan
0.30749798 -0.012579463 -0.73100001 0.50329608 -0.81088585 0.29859191 nan
0.30889571 -0.012579463 -0.73100001 0.54192811 -0.78724813 0.29420096 nan
0.25609407 -0.0145508 -0.76099998 -0.98256981 -0.03025683 0.18341479 nan
0.25754914 -0.0145508 -0.76099998 -0.97940457 -0.11064502 0.16889122 nan
0.25900424 -0.0145508 -0.76099998 -0.96687973 -0.19185199 0.16833429 nan
0.2604593 -0.0145508 -0.76099998 -0.94003052 -0.28392854 0.18901622 nan
0.26157022 -0.014531679 -0.75999999 -0.78257126 -0.48946434 0.38471672 nan
0.26233125 -0.014493438 -0.75800002 -0.45175725 -0.64130425 0.62019694 nan
0.26378056 -0.014493438 -0.75800002 -0.42471498 -0.63480383 0.64547759 nan
0.26522991 -0.014493438 -0.75800002 -0.4095076 -0.62847626 0.66130257 nan
0.26597562 -0.014455196 -0.75599998 -0.39280045 -0.62959123 0.67031544 nan
0.2670674 -0.014436076 -0.755 -0.3771612 -0.63340575 0.67568225 nan
0.26851103 -0.014436076 -0.755 -0.37710238 -0.63561422 0.67363799 nan
0.26995462 -0.014436076 -0.755 -0.37352663 -0.63973558 0.67172629 nan
0.27139822 -0.014436076 -0.755 -0.37064564 -0.64826357 0.66511369 nan
0.27211908 -0.014397835 -0.75300002 -0.37600023 -0.6601494 0.65025127 nan
0.27355888 -0.014397835 -0.75300002 -0.38811174 -0.66654927 0.63646007 nan
0.27463344 -0.014378713 -0.75199997 -0.4145053 -0.67461324 0.61080462 nan
0.27533707 -0.014340473 -0.75 -0.43624869 -0.67203164 0.59838164 nan
0.27677113 -0.014340473 -0.75 -0.45736441 -0.67290169 0.5813958 nan
0.27746332 -0.014302232 -0.74800003 -0.47816509 -0.66591495 0.57263905 nan
0.27889353 -0.014302232 -0.74800003 -0.47269773 -0.66273576 0.58080822 nan
0.27994898 -0.01428311 -0.74699998 -0.47503355 -0.65663064 0.58581501 nan
0.28137729 -0.01428311 -0.74699998 -0.49286193 -0.64865649 0.57994115 nan
0.28204843 -0.01424487 -0.745 -0.49779561 -0.64173007 0.58342272 nan
0.28347293 -0.01424487 -0.745 -0.50447512 -0.63140148 0.58892858 nan
0.28413257 -0.014206628 -0.74299997 -0.51638824 -0.62254626 0.58803004 nan
0.28555322 -0.014206628 -0.74299997 -0.50527328 -0.61367512 0.60671389 nan
0.28658766 -0.014187507 -0.74199998 -0.49137831 -0.61236179 0.6193226 nan
0.28839454 -0.014206628 -0.74299997 -0.50274253 -0.60479069 0.61763906 nan
0.28942516 -0.014187507 -0.74199998 -0.48421261 -0.60223711 0.63470358 nan
0.28966799 -0.014130146 -0.73900002 -0.46758631 -0.60385752 0.64553785 nan
0.29108101 -0.014130146 -0.73900002 -0.43427071 -0.61903691 0.65437168 nan
0.29170242 -0.014091904 -0.73699999 -0.40357357 -0.62624747 0.66703999 nan
0.29311162 -0.014091904 -0.73699999 -0.41879278 -0.62871307 0.65523463 nan
0.29412118 -0.014072784 -0.736 -0.40436018 -0.63408464 0.65911269 nan
0.29552847 -0.014072784 -0.736 -0.37616679 -0.6403116 0.6697011 nan
0.29612887 -0.014034543 -0.73400003 -0.33099312 -0.64486933 0.68890274 nan
0.29834303 -0.014072784 -0.736 0.020293711 -0.61123794 0.79118675 nan
0.29893577 -0.014034543 -0.73400003 0.49400562 -0.53341204 0.68660766 nan
0.29952085 -0.013996301 -0.73199999 0.62484986 -0.49533165 0.60349739 nan
0.30092049 -0.013996301 -0.73199999 0.65837669 -0.52637237 0.53802627 nan
0.30232012 -0.013996301 -0.73199999 0.65024883 -0.56234479 0.51082748 nan
0.3045496 -0.014034543 -0.73400003 0.68214256 -0.57302278 0.45423177 nan
0.30595306 -0.014034543 -0.73400003 0.68016505 -0.59174198 0.43268561 nan
0.30610028 -0.013977181 -0.73100001 0.70649266 -0.58502001 0.39827091 nan
0.25676712 -0.016047945 -0.76300001 -0.96880293 -0.088977061 0.231309 nan
0.25822604 -0.016047945 -0.76300001 -0.96028781 -0.17861255 0.2143476 nan
0.25968495 -0.016047945 -0.76300001 -0.9390415 -0.27143154 0.21101157 nan
0.26114383 -0.016047945 -0.76300001 -0.89842135 -0.37102851 0.2348976 nan
0.26260275 -0.016047945 -0.76300001 -0.72055334 -0.56964344 0.39535955 nan
0.26336947 -0.016005879 -0.76099998 -0.47745663 -0.64503205 0.59663117 nan
0.26447657 -0.015984846 -0.75999999 -0.44439238 -0.63807845 0.62878549 nan
0.26592973 -0.015984846 -0.75999999 -0.419853 -0.62917006 0.65411657 nan
0.26667926 -0.015942782 -0.75800002 -0.39531204 -0.6266616 0.67158294 nan
0.26742113 -0.015900716 -0.75599998 -0.37716237 -0.63073087 0.6781792 nan
0.26886666 -0.015900716 -0.75599998 -0.37380344 -0.63482732 0.67621386 nan
0.26995462 -0.015879683 -0.755 -0.37355 -0.63708735 0.67422557 nan
0.27139822 -0.015879683 -0.755 -0.36417514 -0.63696283 0.67945182 nan
0.27284184 -0.015879683 -0.755 -0.36328816 -0.64693516 0.67044508 nan
0.27428544 -0.015879683 -0.755 -0.37986341 -0.65063059 0.65755886 nan
0.27499866 -0.015837619 -0.75300002 -0.41379303 -0.65611476 0.63110119 nan
0.27643844 -0.015837619 -0.75300002 -0.44017491 -0.6544618 0.6147567 nan
0.27750918 -0.015816584 -0.75199997 -0.4649204 -0.65375316 0.59703922 nan
0.27894706 -0.015816584 -0.75199997 -0.49261466 -0.64915848 0.57958949 nan
0.27889353 -0.015732456 -0.74800003 -0.49090737 -0.64635074 0.58415794 nan
0.28032374 -0.015732456 -0.74800003 -0.49423078 -0.63834 0.59013391 nan
0.28175399 -0.015732456 -0.74800003 -0.50613594 -0.6297825 0.58923709 nan
0.2831842 -0.015732456 -0.74800003 -0.51137233 -0.62959754 0.58489764 nan
0.2842339 -0.015711421 -0.74699998 -0.51921171 -0.62455916 0.58339101 nan
0.2856622 -0.015711421 -0.74699998 -0.5238573 -0.62155533 0.58244526 nan
0.28632188 -0.015669357 -0.745 -0.50777018 -0.62291795 0.59509885 nan
0.28697389 -0.015627291 -0.74299997 -0.49251482 -0.62518752 0.60545003 nan
0.28839454 -0.015627291 -0.74299997 -0.50195384 -0.62119597 0.60179549 nan
0.28942516 -0.015606258 -0.74199998 -0.48157224 -0.61954659 0.61987919 nan
0.29005998 -0.015564194 -0.74000001 -0.45164758 -0.62008917 0.64148569 nan
0.29147491 -0.015564194 -0.74000001 -0.41751945 -0.63142097 0.65344101 nan
0.29249403 -0.015543161 -0.73900002 -0.3923544 -0.63770956 0.66286081 nan
0.29390705 -0.015543161 -0.73900002 -0.40287834 -0.63897318 0.65528804 nan
0.2945208 -0.015501095 -0.73699999 -0.39185521 -0.64222383 0.65878522 nan
0.29593 -0.015501095 -0.73699999 -0.3672021 -0.64633566 0.66888922 nan
0.2973392 -0.015501095 -0.73699999 -0.3195537 -0.65070182 0.68881965 nan
0.29834303 -0.015480063 -0.736 0.13841835 -0.65140581 0.74599665 nan
0.2997503 -0.015480063 -0.736 0.55864084 -0.52135682 0.64506394 nan
0.30033922 -0.015437998 -0.73400003 0.65553629 -0.48411784 0.57957071 nan
0.30174267 -0.015437998 -0.73400003 0.68089324 -0.51270515 0.52298921 nan
0.30232012 -0.015395932 -0.73199999 0.69575167 -0.50708431 0.50871903 nan
0.3045496 -0.015437998 -0.73400003 0.72147506 -0.51980764 0.45746443 nan
0.30595306 -0.015437998 -0.73400003 0.70922804 -0.56038612 0.42774177 nan
0.25991821 -0.017621573 -0.76800001 -0.93542689 -0.22865674 0.26961598 nan
0.26104632 -0.017598629 -0.76700002 -0.90200365 -0.34098619 0.26479778 nan
0.26182836 -0.017552739 -0.76499999 -0.83971989 -0.4580676 0.29162413 nan
0.26260275 -0.017506849 -0.76300001 -0.67918241 -0.59495175 0.42981806 nan
0.26336947 -0.017460959 -0.76099998 -0.48534879 -0.65649158 0.57745588 nan
0.26447657 -0.017438015 -0.75999999 -0.45296919 -0.65607005 0.60364801 nan
0.26592973 -0.017438015 -0.75999999 -0.42825079 -0.64739913 0.63045681 nan
0.26738289 -0.017438015 -0.75999999 -0.38996652 -0.64728361 0.65494269 nan
0.2681286 -0.017392127 -0.75800002 -0.36018398 -0.65081733 0.6683594 nan
0.26957795 -0.017392127 -0.75800002 -0.35883364 -0.65595287 0.66405129 nan
0.2710273 -0.017392127 -0.75800002 -0.36368668 -0.65762442 0.65974396 nan
0.27247664 -0.017392127 -0.75800002 -0.35502478 -0.65033376 0.67158282 nan
0.27392599 -0.017392127 -0.75800002 -0.35603786 -0.6494543 0.67189753 nan
0.27464873 -0.017346235 -0.75599998 -0.37408948 -0.64417464 0.66715521 nan
0.27609426 -0.017346235 -0.75599998 -0.41074437 -0.64549422 0.64391488 nan
0.27717265 -0.017323291 -0.755 -0.43940523 -0.64945304 0.62059146 nan
0.27787822 -0.017277403 -0.75300002 -0.46270719 -0.6518203 0.60085958 nan
0.279318 -0.017277403 -0.75300002 -0.49188668 -0.64835393 0.58110631 nan
0.28038493 -0.017254457 -0.75199997 -0.49665686 -0.64814043 0.57727462 nan
0.28107327 -0.017208567 -0.75 -0.50458044 -0.639256 0.58030206 nan
0.28250733 -0.017208567 -0.75 -0.51217937 -0.62744403 0.58650339 nan
0.28394136 -0.017208567 -0.75 -0.50817144 -0.62925661 0.58804578 nan
0.28461441 -0.017162679 -0.74800003 -0.51157755 -0.63227773 0.58181888 nan
0.28604466 -0.017162679 -0.74800003 -0.51582372 -0.63364321 0.57656062 nan
0.28709054 -0.017139733 -0.74699998 -0.49673992 -0.6371088 0.58935702 nan
0.28851885 -0.017139733 -0.74699998 -0.48333469 -0.63623369 0.60132706 nan
0.28917086 -0.017093845 -0.745 -0.49806046 -0.63423467 0.59133929 nan
0.29059535 -0.017093845 -0.745 -0.4811686 -0.63526273 0.60408449 nan
0.2908439 -0.017025009 -0.74199998 -0.44871435 -0.63366717 0.63017565 nan
0.29147491 -0.016979121 -0.74000001 -0.40703323 -0.64099461 0.65073031 nan
0.29288983 -0.016979121 -0.74000001 -0.38332012 -0.64998305 0.65619183 nan
0.29430476 -0.016979121 -0.74000001 -0.40385956 -0.64562577 0.6481241 nan
0.2945208 -0.016910285 -0.73699999 -0.39244172 -0.64431572 0.65638918 nan
0.29673308 -0.016956177 -0.73900002 -0.36522478 -0.64859575 0.66778332 nan
0.2981461 -0.016956177 -0.73900002 -0.19845752 -0.65065807 0.7329793 nan
0.29955912 -0.016956177 -0.73900002 0.29085436 -0.64053291 0.71071881 nan
0.2997503 -0.016887341 -0.736 0.60560954 -0.50122178 0.61807269 nan
0.30115759 -0.016887341 -0.736 0.68234748 -0.46458185 0.56441623 nan
0.30256486 -0.016887341 -0.736 0.67311186 -0.50419718 0.54102284 nan
0.30314612 -0.016841453 -0.73400003 0.69660175 -0.5201534 0.49415234 nan
0.3045496 -0.016841453 -0.73400003 0.70843989 -0.52258843 0.47435677 nan
0.30595306 -0.016841453 -0.73400003 0.77860665 -0.40112048 0.48257023 nan
0.25844973 -0.019090038 -0.76800001 -0.92365056 -0.14512537 0.35469458 nan
0.25991821 -0.019090038 -0.76800001 -0.90261066 -0.26055688 0.3426429 nan
0.26104632 -0.019065181 -0.76700002 -0.85620946 -0.38960803 0.33928013 nan
0.26182836 -0.019015467 -0.76499999 -0.81004512 -0.48760554 0.32568052 nan
0.26329109 -0.019015467 -0.76499999 -0.67747784 -0.59788847 0.42843106 nan
0.26406166 -0.018965755 -0.76300001 -0.48467317 -0.66517246 0.56801188 nan
0.26482454 -0.018916039 -0.76099998 -0.46257436 -0.66209745 0.58962005 nan
0.26592973 -0.018891184 -0.75999999 -0.43509701 -0.65742892 0.61520547 nan
0.26738289 -0.018891184 -0.75999999 -0.38682604 -0.66196352 0.64200455 nan
0.26883605 -0.018891184 -0.75999999 -0.35510564 -0.66012836 0.66191435 nan
0.26957795 -0.01884147 -0.75800002 -0.34927216 -0.6640442 0.66110086 nan
0.2710273 -0.01884147 -0.75800002 -0.37284464 -0.661331 0.6508671 nan
0.27247664 -0.01884147 -0.75800002 -0.37474304 -0.64766866 0.66339499 nan
0.27392599 -0.01884147 -0.75800002 -0.37213868 -0.6441381 0.6682806 nan
0.27537534 -0.01884147 -0.75800002 -0.38311288 -0.63781166 0.66814733 nan
0.27682468 -0.01884147 -0.75800002 -0.40312546 -0.63343787 0.6604895 nan
0.27753976 -0.018791756 -0.75599998 -0.42222017 -0.64520133 0.63674593 nan
0.27861628 -0.018766899 -0.755 -0.45339587 -0.65110141 0.60868651 nan
0.28005987 -0.018766899 -0.755 -0.4896957 -0.6465891 0.58491081 nan
0.28075778 -0.018717187 -0.75300002 -0.49873254 -0.64936537 0.57409978 nan
0.2818228 -0.018692328 -0.75199997 -0.51815999 -0.64055794 0.56674141 nan
0.28250733 -0.018642616 -0.75 -0.51904958 -0.63050729 0.57710326 nan
0.28394136 -0.018642616 -0.75 -0.50587165 -0.62723809 0.59217083 nan
0.28537542 -0.018642616 -0.75 -0.5062204 -0.63233447 0.58642483 nan
0.28604466 -0.018592902 -0.74800003 -0.51688319 -0.62955993 0.58007407 nan
0.28747487 -0.018592902 -0.74800003 -0.50842673 -0.63223886 0.58461642 nan
0.28851885 -0.018568045 -0.74699998 -0.49639556 -0.62550271 0.60194498 nan
0.28917086 -0.018518331 -0.745 -0.50352496 -0.62199759 0.59965134 nan
0.29059535 -0.018518331 -0.745 -0.49208862 -0.62494916 0.60604239 nan
0.29201984 -0.018518331 -0.745 -0.45553252 -0.62705326 0.63189745 nan
0.29226264 -0.01844376 -0.74199998 -0.40138745 -0.63422436 0.66079313 nan
0.29368141 -0.01844376 -0.74199998 -0.38510555 -0.63784742 0.66696656 nan
0.29430476 -0.018394047 -0.74000001 -0.41071182 -0.63928658 0.6500988 nan
0.29571968 -0.018394047 -0.74000001 -0.39460188 -0.6368174 0.66238421 nan
0.29713461 -0.018394047 -0.74000001 -0.36176291 -0.64145786 0.67650527 nan
0.29854953 -0.018394047 -0.74000001 -0.076330416 -0.63190031 0.7712819 nan
0.29996446 -0.018394047 -0.74000001 0.41406184 -0.57126981 0.70866334 nan
0.30097213 -0.01836919 -0.73900002 0.65207791 -0.45091835 0.6094811 nan
0.30156675 -0.018319476 -0.73699999 0.71471518 -0.41833386 0.56051672 nan
0.30256486 -0.018294619 -0.736 0.70676523 -0.45610341 0.54078883 nan
0.30397213 -0.018294619 -0.736 0.74744916 -0.41155243 0.52148277 nan
0.30537942 -0.018294619 -0.736 0.74888867 -0.44086087 0.49478027 nan
0.30678669 -0.018294619 -0.736 0.76425827 -0.40557671 0.50141484 nan
0.26138666 -0.020558503 -0.76800001 -0.8261584 -0.36662483 0.42784163 nan
0.26285514 -0.020558503 -0.76800001 -0.7787022 -0.47839829 0.40590394 nan
0.26397943 -0.020531734 -0.76700002 -0.62851393 -0.6230312 0.46562034 nan
0.26475382 -0.020478195 -0.76499999 -0.4876858 -0.67025393 0.55939454 nan
0.26552054 -0.020424658 -0.76300001 -0.47392172 -0.66707456 0.57481283 nan
0.26627964 -0.020371119 -0.76099998 -0.43474692 -0.67146599 0.60010701 nan
