# .PCD v0.7 - Point Cloud Data file format
VERSION 0.7
FIELDS x y z normal_x normal_y normal_z curvature
SIZE 4 4 4 4 4 4 4
TYPE F F F F F F F
COUNT 1 1 1 1 1 1 1
WIDTH 679
HEIGHT 1
VIEWPOINT 0 0 0 1 0 0 0
POINTS 679
DATA ascii
0.12114832 0.13629186 -0.88 0.37164521 -0.008213493 0.92833847 nan
0.12283093 0.13629186 -0.88 0.31818289 0.031786058 0.94749635 nan
0.12451354 0.13629186 -0.88 0.23867013 0.076630816 0.96807235 nan
0.12619616 0.13629186 -0.88 0.15162756 0.10658272 0.98267448 nan
0.12787877 0.13629186 -0.88 0.074390948 0.11432734 0.99065393 nan
0.12956139 0.13629186 -0.88 0.040420655 0.10950733 0.99316376 nan
0.1315423 0.13660161 -0.88200003 -0.017481171 0.093481421 0.99546766 nan
0.13292663 0.13629186 -0.88 -0.065067716 0.065039411 0.99575907 nan
0.13491517 0.13660161 -0.88200003 -0.065063484 0.065061793 0.99575776 nan
0.13629186 0.13629186 -0.88 -0.029583368 0.041466694 0.99870181 nan
0.13797447 0.13629186 -0.88 -0.029721897 0.017845767 0.99939889 nan
0.13965708 0.13629186 -0.88 -0.047908563 -0.012004957 0.99877959 nan
0.1413397 0.13629186 -0.88 -2.8015462e-05 -0.041850638 0.99912387 nan
0.14302231 0.13629186 -0.88 0.10238456 -0.076223552 0.99182028 nan
0.14470494 0.13629186 -0.88 0.21432753 -0.10451179 0.97115445 nan
0.14638755 0.13629186 -0.88 0.27686945 -0.12634028 0.95256567 nan
0.14807016 0.13629186 -0.88 0.32120231 -0.14208686 0.93629086 nan
0.15009314 0.13660161 -0.88200003 0.36466798 -0.13564064 0.92120504 nan
0.15177958 0.13660161 -0.88200003 0.40674803 -0.13931717 0.90285486 nan
0.153814 0.13691136 -0.884 0.40426448 -0.11925779 0.90683401 nan
0.15550427 0.13691136 -0.884 0.47218859 -0.10332473 0.87542099 nan
0.157728 0.137376 -0.88700002 0.5461005 -0.22200993 0.80776602 nan
0.15942399 0.137376 -0.88700002 0.50387204 -0.35597739 0.78701538 nan
0.16148329 0.13768575 -0.889 0.4150528 -0.47887766 0.77356791 nan
0.16318311 0.13768575 -0.889 0.31299585 -0.59593576 0.73952287 nan
0.16488293 0.13768575 -0.889 0.22008452 -0.70101416 0.67833763 nan
0.16658276 0.13768575 -0.889 0.16292435 -0.77566683 0.60975128 nan
0.16828258 0.13768575 -0.889 0.09764342 -0.83733797 0.53789485 nan
0.17036481 0.1379955 -0.89099997 0.012648983 -0.88431841 0.46671295 nan
0.17168222 0.13768575 -0.889 -0.047920067 -0.91715157 0.39564708 nan
0.17299201 0.137376 -0.88700002 -0.13386463 -0.9324007 0.33572173 nan
0.174688 0.137376 -0.88700002 -0.22195232 -0.9181335 0.32828027 nan
0.176384 0.137376 -0.88700002 -0.24710168 -0.90486544 0.34664023 nan
0.17807999 0.137376 -0.88700002 -0.22343583 -0.89784473 0.37940928 nan
0.17916796 0.13691136 -0.884 -0.197567 -0.88674444 0.41791332 nan
0.18085822 0.13691136 -0.884 -0.17757897 -0.86734766 0.4649449 nan
0.18254849 0.13691136 -0.884 -0.17305002 -0.83813757 0.51728052 nan
0.18423875 0.13691136 -0.884 -0.16338044 -0.79878724 0.57900405 nan
0.18592902 0.13691136 -0.884 -0.051719777 -0.75546706 0.65314215 nan
0.18761928 0.13691136 -0.884 0.11629201 -0.68511468 0.71909255 nan
0.18930954 0.13691136 -0.884 0.18725784 -0.6264866 0.7566036 nan
0.19099981 0.13691136 -0.884 0.21845242 -0.58572108 0.78051859 nan
0.19269007 0.13691136 -0.884 0.27017951 -0.55777788 0.78478456 nan
0.19438033 0.13691136 -0.884 0.26386753 -0.5447557 0.79599953 nan
0.19762318 0.1379955 -0.89099997 0.27335629 -0.51970875 0.80943131 nan
0.19932683 0.1379955 -0.89099997 0.28169933 -0.5017547 0.81785548 nan
0.20103048 0.1379955 -0.89099997 0.28736597 -0.4880676 0.8241424 nan
0.20273413 0.1379955 -0.89099997 0.35184395 -0.47816682 0.80471253 nan
0.20443778 0.1379955 -0.89099997 0.65663624 -0.35932156 0.66311151 nan
0.20614143 0.1379955 -0.89099997 0.79511952 -0.17667931 0.5801459 nan
0.2085449 0.13846013 -0.89399999 0.80480784 -0.088603444 0.5868848 nan
0.20954873 0.1379955 -0.89099997 0.79751331 -0.013626654 0.60314751 nan
0.21125238 0.1379955 -0.89099997 0.7853204 0.0590657 0.61626536 nan
0.21295601 0.1379955 -0.89099997 0.77725339 0.12280013 0.61708772 nan
0.033155173 0.13262069 -0.86699998 -0.54395092 0.77437854 0.32319546 nan
0.034812931 0.13262069 -0.86699998 -0.53864586 0.78762043 0.29919016 nan
0.036386561 0.13231477 -0.86500001 -0.29544997 -0.19717172 0.93479007 nan
0.038040496 0.13231477 -0.86500001 -0.22518022 -0.22517972 0.94793874 nan
0.039694428 0.13231477 -0.86500001 -0.37872735 -0.5685426 0.73029095 nan
0.049445949 0.13185586 -0.86199999 -0.710513 0.10938203 0.69513077 nan
0.050975602 0.13154994 -0.86000001 -0.39405179 0.26279175 0.88071769 nan
0.052619975 0.13154994 -0.86000001 0.066323593 0.066253133 0.99559617 nan
0.054264352 0.13154994 -0.86000001 0.036220513 0.18090521 0.98283333 nan
0.055908725 0.13154994 -0.86000001 0.13856743 0.1385024 0.98062027 nan
0.057553098 0.13154994 -0.86000001 0.1431829 0.15895817 0.97684747 nan
0.059197474 0.13154994 -0.86000001 0.13408355 -0.018193701 0.990803 nan
0.060983337 0.13185586 -0.86199999 0.12976404 0.027816456 0.99115473 nan
0.06263154 0.13185586 -0.86199999 0.18580531 -0.032683223 0.98204285 nan
0.064279735 0.13185586 -0.86199999 0.22395462 -0.068435192 0.97219384 nan
0.06592793 0.13185586 -0.86199999 0.24297014 -0.025847839 0.96968937 nan
0.067576133 0.13185586 -0.86199999 0.2328244 -0.057971455 0.97078949 nan
0.069224328 0.13185586 -0.86199999 0.22761771 -0.087365754 0.96982342 nan
0.07087253 0.13185586 -0.86199999 0.25708297 -0.11254127 0.95981395 nan
0.072520725 0.13185586 -0.86199999 0.27265924 -0.11463654 0.9552567 nan
0.074168928 0.13185586 -0.86199999 0.32515392 -0.11475793 0.93867224 nan
0.076080993 0.13231477 -0.86500001 0.36038259 -0.13197601 0.92342126 nan
0.077734925 0.13231477 -0.86500001 0.36231819 -0.14270385 0.92106527 nan
0.079388857 0.13231477 -0.86500001 0.36896783 -0.14195332 0.91853797 nan
0.081230171 0.13262069 -0.86699998 0.33831957 -0.14391781 0.92996109 nan
0.082887933 0.13262069 -0.86699998 0.32575282 -0.16677617 0.93062919 nan
0.084740728 0.13292663 -0.86900002 0.33704418 -0.19017357 0.92208201 nan
0.086402304 0.13292663 -0.86900002 0.32170421 -0.22134845 0.92060381 nan
0.088063888 0.13292663 -0.86900002 0.29105774 -0.25420281 0.92231578 nan
0.089725472 0.13292663 -0.86900002 0.27974844 -0.28479111 0.91686141 nan
0.091597378 0.13323255 -0.87099999 0.26825124 -0.30976793 0.91218698 nan
0.093262784 0.13323255 -0.87099999 0.21516563 -0.33959389 0.91563076 nan
0.094928198 0.13323255 -0.87099999 0.18753728 -0.36077097 0.91360503 nan
0.096815407 0.13353848 -0.87300003 0.17651534 -0.36700425 0.91331828 nan
0.098484635 0.13353848 -0.87300003 0.1737311 -0.3671765 0.91378278 nan
0.10015386 0.13353848 -0.87300003 0.17063099 -0.3724356 0.91223717 nan
0.10205637 0.13384442 -0.875 0.14902307 -0.36664066 0.91834998 nan
0.10349233 0.13353848 -0.87300003 0.14353755 -0.36437592 0.92012346 nan
0.10540248 0.13384442 -0.875 0.19518775 -0.35089788 0.91584527 nan
0.10683079 0.13353848 -0.87300003 0.27220491 -0.33294588 0.90280205 nan
0.10874858 0.13384442 -0.875 0.2874088 -0.31510165 0.90449274 nan
0.11042164 0.13384442 -0.875 0.30566141 -0.27860039 0.91046852 nan
0.1120947 0.13384442 -0.875 0.32095745 -0.24225403 0.91558683 nan
0.11376775 0.13384442 -0.875 0.34907734 -0.20697166 0.91395169 nan
0.11583661 0.13430332 -0.87800002 0.36924833 -0.16761224 0.91409069 nan
0.1175154 0.13430332 -0.87800002 0.34909883 -0.1264594 0.92851394 nan
0.1194657 0.13460924 -0.88 0.33465785 -0.078476556 0.93906635 nan
0.12114832 0.13460924 -0.88 0.32791603 -0.019103022 0.9445138 nan
0.12283093 0.13460924 -0.88 0.27611971 0.024351606 0.96081465 nan
0.12451354 0.13460924 -0.88 0.20341186 0.06950143 0.97662336 nan
0.12619616 0.13460924 -0.88 0.13853034 0.09602657 0.98569173 nan
0.12787877 0.13460924 -0.88 0.0803703 0.097495042 0.9919855 nan
0.12956139 0.13460924 -0.88 0.051995806 0.09808372 0.99381894 nan
0.131244 0.13460924 -0.88 4.7026086e-05 0.093297094 0.99563831 nan
0.13292663 0.13460924 -0.88 -0.058974192 0.076673172 0.99531066 nan
0.13491517 0.13491517 -0.88200003 -0.064682364 0.091191322 0.99373049 nan
0.13660161 0.13491517 -0.88200003 -0.011656164 0.087825082 0.99606764 nan
0.13797447 0.13460924 -0.88 -0.0057833078 0.090639494 0.99586701 nan
0.13965708 0.13460924 -0.88 -0.023407957 0.082281806 0.99633414 nan
0.1413397 0.13460924 -0.88 0.023352414 0.073086798 0.99705219 nan
0.14302231 0.13460924 -0.88 0.13058344 0.068389393 0.98907578 nan
0.14470494 0.13460924 -0.88 0.23224281 0.065876938 0.97042441 nan
0.14638755 0.13460924 -0.88 0.27980065 0.072283491 0.95733309 nan
0.14807016 0.13460924 -0.88 0.30439141 0.079062097 0.94926029 nan
0.15009314 0.13491517 -0.88200003 0.33194065 0.11536644 0.93621898 nan
0.15177958 0.13491517 -0.88200003 0.35432586 0.13770443 0.92492741 nan
0.153814 0.13522109 -0.884 0.32619572 0.20341398 0.92315716 nan
0.156032 0.13568 -0.88700002 0.46732292 0.22153348 0.85588092 nan
0.157728 0.13568 -0.88700002 0.5954873 0.1668202 0.78585368 nan
0.15942399 0.13568 -0.88700002 0.57358098 0.13616331 0.80775273 nan
0.16148329 0.13598593 -0.889 0.52048707 0.016768703 0.85370481 nan
0.16318311 0.13598593 -0.889 0.46078667 -0.12583543 0.87854487 nan
0.16488293 0.13598593 -0.889 0.39623451 -0.30305171 0.86669374 nan
0.16658276 0.13598593 -0.889 0.35085276 -0.45799017 0.81679094 nan
0.16866116 0.13629185 -0.89099997 0.28294396 -0.60772425 0.7420336 nan
0.17036481 0.13629185 -0.89099997 0.18872972 -0.7324537 0.65413511 nan
0.17206846 0.13629185 -0.89099997 0.11134241 -0.82682121 0.5513342 nan
0.17377211 0.13629185 -0.89099997 -0.095937885 -0.89536715 0.434872 nan
0.17508188 0.13598593 -0.889 -0.27779433 -0.89045918 0.36043423 nan
0.1767817 0.13598593 -0.889 -0.3076584 -0.88806969 0.34158227 nan
0.17848153 0.13598593 -0.889 -0.29883057 -0.87610364 0.37834215 nan
0.179776 0.13568 -0.88700002 -0.27668738 -0.86611354 0.41628298 nan
0.181472 0.13568 -0.88700002 -0.26342592 -0.84649056 0.46266699 nan
0.18316799 0.13568 -0.88700002 -0.26677749 -0.81933153 0.50746983 nan
0.184864 0.13568 -0.88700002 -0.25111631 -0.78790903 0.56226331 nan
0.18656 0.13568 -0.88700002 -0.1251476 -0.75733256 0.64092553 nan
0.188256 0.13568 -0.88700002 0.045540653 -0.71646315 0.69613683 nan
0.189952 0.13568 -0.88700002 0.12259287 -0.6629169 0.73858804 nan
0.19164799 0.13568 -0.88700002 0.1806968 -0.62102664 0.76267594 nan
0.19269007 0.13522109 -0.884 0.25461942 -0.60003299 0.7583729 nan
0.19438033 0.13522109 -0.884 0.24613221 -0.61427277 0.74972516 nan
0.19762318 0.13629185 -0.89099997 0.24536879 -0.60638976 0.75636345 nan
0.19932683 0.13629185 -0.89099997 0.25405833 -0.60029936 0.75835025 nan
0.20103048 0.13629185 -0.89099997 0.27234641 -0.59441656 0.75663489 nan
0.20273413 0.13629185 -0.89099997 0.34135976 -0.57868052 0.74067706 nan
0.20443778 0.13629185 -0.89099997 0.60879028 -0.45570955 0.64938688 nan
0.20614143 0.13629185 -0.89099997 0.76222992 -0.25466445 0.59510642 nan
0.20784508 0.13629185 -0.89099997 0.7818889 -0.15118037 0.60480922 nan
0.20954873 0.13629185 -0.89099997 0.77958477 -0.062858567 0.62313426 nan
0.21125238 0.13629185 -0.89099997 0.77041394 0.022808885 0.63713598 nan
0.21295601 0.13629185 -0.89099997 0.76426941 0.10153531 0.63685381 nan
0.21465966 0.13629185 -0.89099997 0.75065506 0.1713319 0.63809276 nan
0.023369236 0.13186926 -0.87300003 -0.25122622 0.8459484 0.47037917 nan
0.025038466 0.13186926 -0.87300003 -0.35100961 0.81820351 0.45534095 nan
0.028311918 0.13156715 -0.87099999 -0.34032527 0.83573478 0.43095949 nan
0.029977325 0.13156715 -0.87099999 -0.32061884 0.8563475 0.40481171 nan
0.031497415 0.13096294 -0.86699998 -0.48737219 0.7794441 0.39361805 nan
0.033155173 0.13096294 -0.86699998 -0.48722959 0.79232168 0.36719683 nan
0.034812931 0.13096294 -0.86699998 -0.64455539 0.22575055 0.73046899 nan
0.036386561 0.13066083 -0.86500001 -0.3768712 -0.19763649 0.9049353 nan
0.038040496 0.13066083 -0.86500001 -0.20142852 -0.1007046 0.97431266 nan
0.039694428 0.13066083 -0.86500001 -0.42339781 -0.2116531 0.88087302 nan
0.041348364 0.13066083 -0.86500001 -0.69146991 -0.17260505 0.70148188 nan
0.047964104 0.13066083 -0.86500001 -0.62367237 -0.18693012 0.75900584 nan
0.049445949 0.13020767 -0.86199999 -0.71564698 -0.27492002 0.64208132 nan
0.050975602 0.12990557 -0.86000001 -0.29305419 -0.32593802 0.89882344 nan
0.052497603 0.12960346 -0.85799998 -0.24425089 -0.037533462 0.96898544 nan
0.054264352 0.12990557 -0.86000001 0.024482587 -0.073352426 0.99700552 nan
0.055908725 0.12990557 -0.86000001 0.14377885 -0.047907535 0.98844957 nan
0.057553098 0.12990557 -0.86000001 0.1878107 0.0081880987 0.98217106 nan
0.059197474 0.12990557 -0.86000001 0.15286666 -0.10381941 0.98277831 nan
0.060841847 0.12990557 -0.86000001 0.1312331 -0.056145582 0.98976034 nan
0.06263154 0.13020767 -0.86199999 0.21402502 -0.076040015 0.97386402 nan
0.064279735 0.13020767 -0.86199999 0.21966809 -0.064265788 0.97345561 nan
0.06592793 0.13020767 -0.86199999 0.26008472 -0.080707736 0.96220696 nan
0.067576133 0.13020767 -0.86199999 0.26288423 -0.11243799 0.95825344 nan
0.069224328 0.13020767 -0.86199999 0.26008135 -0.14430165 0.95474327 nan
0.07087253 0.13020767 -0.86199999 0.27271247 -0.16929621 0.94708323 nan
0.072773121 0.13066083 -0.86500001 0.27763242 -0.1744417 0.94471705 nan
0.074427053 0.13066083 -0.86500001 0.33217445 -0.17562997 0.92672235 nan
0.076080993 0.13066083 -0.86500001 0.36921811 -0.17487361 0.9127416 nan
0.077734925 0.13066083 -0.86500001 0.36849344 -0.19098294 0.90980113 nan
0.079388857 0.13066083 -0.86500001 0.37260124 -0.19560979 0.90714121 nan
0.081230171 0.13096294 -0.86699998 0.34908143 -0.20308894 0.91482079 nan
0.082887933 0.13096294 -0.86699998 0.34552881 -0.22731526 0.91046005 nan
0.084740728 0.13126504 -0.86900002 0.35797688 -0.25177085 0.89914626 nan
0.086402304 0.13126504 -0.86900002 0.34719336 -0.27881199 0.89538848 nan
0.088063888 0.13126504 -0.86900002 0.31725618 -0.30851895 0.89675224 nan
0.089931972 0.13156715 -0.87099999 0.29655853 -0.33159903 0.89559758 nan
0.091597378 0.13156715 -0.87099999 0.28547034 -0.34803161 0.8929618 nan
0.093262784 0.13156715 -0.87099999 0.23846281 -0.37953618 0.89391714 nan
0.094928198 0.13156715 -0.87099999 0.19822618 -0.40445399 0.89281762 nan
0.096815407 0.13186926 -0.87300003 0.16864753 -0.41525474 0.89393592 nan
0.098484635 0.13186926 -0.87300003 0.16867864 -0.41261202 0.89515299 nan
0.10015386 0.13186926 -0.87300003 0.16593921 -0.41026556 0.89674205 nan
0.10205637 0.13217136 -0.875 0.13625938 -0.40831515 0.90261412 nan
0.10349233 0.13186926 -0.87300003 0.12557067 -0.39908382 0.90827525 nan
0.10540248 0.13217136 -0.875 0.1721531 -0.38383067 0.90721405 nan
0.10683079 0.13186926 -0.87300003 0.24789183 -0.36369482 0.89792866 nan
0.10874858 0.13217136 -0.875 0.25666267 -0.33688545 0.9058876 nan
0.11042164 0.13217136 -0.875 0.27052665 -0.30374405 0.91353977 nan
0.1120947 0.13217136 -0.875 0.28911319 -0.26434058 0.92007482 nan
0.11376775 0.13217136 -0.875 0.32114488 -0.22049157 0.92100453 nan
0.11583661 0.13262452 -0.87800002 0.33551022 -0.17869945 0.92493212 nan
0.1175154 0.13262452 -0.87800002 0.30739063 -0.13189413 0.94239849 nan
0.11919419 0.13262452 -0.87800002 0.28737578 -0.077501543 0.95467716 nan
0.12087298 0.13262452 -0.87800002 0.2856403 -0.022190154 0.95807987 nan
0.12255178 0.13262452 -0.87800002 0.2413466 0.027499996 0.97004932 nan
0.12451354 0.13292663 -0.88 0.17417748 0.078495957 0.98158067 nan
0.12619616 0.13292663 -0.88 0.12725167 0.10733758 0.98604548 nan
0.12787877 0.13292663 -0.88 0.074284375 0.11988741 0.99000448 nan
0.12956139 0.13292663 -0.88 0.045736589 0.13993207 0.98910421 nan
0.131244 0.13292663 -0.88 0.0057733678 0.14919996 0.98879021 nan
0.13322873 0.13322873 -0.88200003 -0.060805015 0.14771502 0.98715907 nan
0.13491517 0.13322873 -0.88200003 -0.074867405 0.16998823 0.98259801 nan
0.13660161 0.13322873 -0.88200003 -0.028549355 0.180116 0.98323101 nan
0.13828805 0.13322873 -0.88200003 -0.022572158 0.20665392 0.97815371 nan
0.13997449 0.13322873 -0.88200003 -0.028169138 0.21215478 0.97683001 nan
0.1413397 0.13292663 -0.88 0.011196327 0.22137098 0.97512537 nan
0.14302231 0.13292663 -0.88 0.097917043 0.23231722 0.96769887 nan
0.14470494 0.13292663 -0.88 0.18934581 0.26348609 0.94589812 nan
0.14672025 0.13322873 -0.88200003 0.23887375 0.27827016 0.93032521 nan
0.1484067 0.13322873 -0.88200003 0.25207385 0.29596147 0.92133904 nan
0.15009314 0.13322873 -0.88200003 0.27391547 0.3355937 0.90130305 nan
0.15212373 0.13353084 -0.884 0.28776911 0.35975286 0.88756227 nan
0.153814 0.13353084 -0.884 0.25990576 0.40431029 0.87691629 nan
0.156032 0.133984 -0.88700002 0.39891022 0.39794543 0.82614172 nan
0.157728 0.133984 -0.88700002 0.51067162 0.39705679 0.76260114 nan
0.15942399 0.133984 -0.88700002 0.52728355 0.41654736 0.74058115 nan
0.16148329 0.13428611 -0.889 0.55439651 0.31518322 0.77026242 nan
0.16355023 0.1345882 -0.89099997 0.54265016 0.19191135 0.81774127 nan
0.16525386 0.1345882 -0.89099997 0.52356118 0.031388357 0.85140961 nan
0.16695751 0.1345882 -0.89099997 0.50593251 -0.1439478 0.8504771 nan
0.16922905 0.13504137 -0.89399999 0.46587622 -0.33958644 0.81709266 nan
0.17093843 0.13504137 -0.89399999 0.38655123 -0.52192003 0.76037979 nan
0.17264782 0.13504137 -0.89399999 0.30704927 -0.6700663 0.67581946 nan
0.17435721 0.13504137 -0.89399999 0.062028255 -0.81801838 0.57183778 nan
0.17547576 0.1345882 -0.89099997 -0.18186899 -0.88024372 0.43828613 nan
0.17717941 0.1345882 -0.89099997 -0.30568048 -0.87888438 0.36622617 nan
0.17848153 0.13428611 -0.889 -0.36575201 -0.84317923 0.3940486 nan
0.18018135 0.13428611 -0.889 -0.34371728 -0.83743173 0.42493108 nan
0.18188117 0.13428611 -0.889 -0.34341553 -0.8158043 0.46532691 nan
0.18358099 0.13428611 -0.889 -0.34402612 -0.7897225 0.50792181 nan
0.184864 0.133984 -0.88700002 -0.33157408 -0.76019371 0.5587166 nan
0.18656 0.133984 -0.88700002 -0.18981908 -0.74092174 0.64420789 nan
0.188256 0.133984 -0.88700002 -0.0058858846 -0.70531666 0.70886785 nan
0.189952 0.133984 -0.88700002 0.074649848 -0.64858902 0.7574693 nan
0.19164799 0.133984 -0.88700002 0.17245452 -0.59354556 0.78610629 nan
0.193344 0.133984 -0.88700002 0.27576002 -0.59729928 0.75312018 nan
0.19504 0.133984 -0.88700002 0.25182614 -0.64181161 0.72433513 nan
0.19762318 0.1345882 -0.89099997 0.24017477 -0.63194591 0.73685855 nan
0.19932683 0.1345882 -0.89099997 0.25686181 -0.62374955 0.738213 nan
0.20103048 0.1345882 -0.89099997 0.2733911 -0.62396705 0.73206717 nan
0.20273413 0.1345882 -0.89099997 0.34435898 -0.60469323 0.71816641 nan
0.20443778 0.1345882 -0.89099997 0.56473196 -0.50541288 0.65240759 nan
0.20567872 0.13428611 -0.889 0.72078836 -0.30377102 0.62304693 nan
0.20784508 0.1345882 -0.89099997 0.74960536 -0.19078584 0.63379222 nan
0.20954873 0.1345882 -0.89099997 0.74988002 -0.08872176 0.65559769 nan
0.21125238 0.1345882 -0.89099997 0.74022204 0.01220357 0.67225182 nan
0.21295601 0.1345882 -0.89099997 0.7352562 0.1052543 0.66956681 nan
0.019984882 0.12990174 -0.87099999 -0.27271563 0.84301311 0.46363246 nan
0.02165029 0.12990174 -0.87099999 -0.2238538 0.85203487 0.47320816 nan
0.023315696 0.12990174 -0.87099999 -0.24756084 0.846053 0.47213131 nan
0.024981104 0.12990174 -0.87099999 -0.34398559 0.82020694 0.45709363 nan
0.026585326 0.12960346 -0.86900002 -0.38098535 0.807082 0.45107514 nan
0.028246908 0.12960346 -0.86900002 -0.40236729 0.79193312 0.45928466 nan
0.029908491 0.12960346 -0.86900002 -0.39287296 0.81118369 0.43316492 nan
0.031570073 0.12960346 -0.86900002 -0.51730096 0.67950702 0.52025938 nan
0.033155173 0.12930517 -0.86699998 -0.53248721 0.66565377 0.52284086 nan
0.034812931 0.12930517 -0.86699998 -0.38726863 -0.045529373 0.92084205 nan
0.036386561 0.12900689 -0.86500001 -0.36743614 -0.034529287 0.92940754 nan
0.038040496 0.12900689 -0.86500001 -0.26022545 -0.055828143 0.96393257 nan
0.039694428 0.12900689 -0.86500001 -0.38347754 -0.19172046 0.90343136 nan
0.041348364 0.12900689 -0.86500001 -0.379706 -0.28492159 0.8801381 nan
0.042853158 0.12855947 -0.86199999 -0.098585904 -0.3943249 0.91366774 nan
0.044501357 0.12855947 -0.86199999 0.19545172 -0.29314923 0.93587506 nan
0.046149552 0.12855947 -0.86199999 -0.065960765 -0.39469209 0.91644275 nan
0.047797751 0.12855947 -0.86199999 -0.5595808 -0.36349738 0.74480796 nan
0.049445949 0.12855947 -0.86199999 -0.55566996 -0.38939437 0.73457664 nan
0.050975602 0.12826119 -0.86000001 -0.46290666 -0.30884311 0.83086306 nan
0.052619975 0.12826119 -0.86000001 -0.25003347 -0.29783484 0.92129135 nan
0.054264352 0.12826119 -0.86000001 2.5649317e-05 -0.26805657 0.96340311 nan
0.055908725 0.12826119 -0.86000001 0.12578966 -0.11737829 0.98508841 nan
0.057553098 0.12826119 -0.86000001 0.23338449 -0.14960219 0.96080744 nan
0.059197474 0.12826119 -0.86000001 0.1634748 -0.10729792 0.98069525 nan
0.060841847 0.12826119 -0.86000001 0.1586968 -0.16227731 0.97390008 nan
0.06263154 0.12855947 -0.86199999 0.23126289 -0.16609496 0.95860827 nan
0.064279735 0.12855947 -0.86199999 0.23659675 -0.1312906 0.96269661 nan
0.06592793 0.12855947 -0.86199999 0.28911448 -0.14292316 0.94656521 nan
0.067576133 0.12855947 -0.86199999 0.29127049 -0.17111476 0.94121265 nan
0.069224328 0.12855947 -0.86199999 0.2804282 -0.19153512 0.94057131 nan
0.071119189 0.12900689 -0.86500001 0.28493109 -0.20506816 0.93635529 nan
0.072773121 0.12900689 -0.86500001 0.28189451 -0.21625265 0.93475676 nan
0.074427053 0.12900689 -0.86500001 0.33099601 -0.2222496 0.91708601 nan
0.076080993 0.12900689 -0.86500001 0.37483588 -0.21701953 0.90133262 nan
0.077734925 0.12900689 -0.86500001 0.37808439 -0.23743507 0.89480543 nan
0.079572417 0.12930517 -0.86699998 0.37545806 -0.23740174 0.89591938 nan
0.081230171 0.12930517 -0.86699998 0.36083931 -0.25193268 0.89795601 nan
0.082887933 0.12930517 -0.86699998 0.36575368 -0.27664182 0.88864702 nan
0.084740728 0.12960346 -0.86900002 0.37744263 -0.29452521 0.87794763 nan
0.086402304 0.12960346 -0.86900002 0.36243132 -0.31644315 0.87664557 nan
0.088266566 0.12990174 -0.87099999 0.32904473 -0.33650443 0.88232321 nan
0.089931972 0.12990174 -0.87099999 0.30890524 -0.35419554 0.88267946 nan
0.091597378 0.12990174 -0.87099999 0.30266559 -0.3694748 0.87856805 nan
0.093262784 0.12990174 -0.87099999 0.25697896 -0.39583686 0.88163197 nan
0.094928198 0.12990174 -0.87099999 0.21233055 -0.42136046 0.88168657 nan
0.096815407 0.13020003 -0.87300003 0.17751136 -0.44005436 0.88025105 nan
0.098484635 0.13020003 -0.87300003 0.16433732 -0.43912229 0.88326943 nan
0.10015386 0.13020003 -0.87300003 0.15935011 -0.42989698 0.88870478 nan
0.10205637 0.1304983 -0.875 0.12972298 -0.42812005 0.89436293 nan
0.10349233 0.13020003 -0.87300003 0.11909581 -0.41914055 0.90007633 nan
0.10540248 0.1304983 -0.875 0.17040463 -0.41334882 0.89448589 nan
0.10683079 0.13020003 -0.87300003 0.23275816 -0.39978081 0.88656586 nan
0.10874858 0.1304983 -0.875 0.22863771 -0.38297254 0.89501774 nan
0.11042164 0.1304983 -0.875 0.23736908 -0.36151627 0.90164405 nan
0.1120947 0.1304983 -0.875 0.2470939 -0.3190769 0.91495061 nan
0.11376775 0.1304983 -0.875 0.27598014 -0.27855563 0.91991401 nan
0.11583661 0.13094573 -0.87800002 0.29200569 -0.22855105 0.9287073 nan
0.1175154 0.13094573 -0.87800002 0.25800863 -0.18227597 0.9487924 nan
0.11919419 0.13094573 -0.87800002 0.23766702 -0.12729511 0.96296948 nan
0.12087298 0.13094573 -0.87800002 0.23700103 -0.076237835 0.96851343 nan
0.12255178 0.13094573 -0.87800002 0.18546136 -0.014424589 0.98254573 nan
0.12423056 0.13094573 -0.87800002 0.12907012 0.048613068 0.99044323 nan
0.12619616 0.131244 -0.88 0.099755645 0.10535708 0.98941839 nan
0.12787877 0.131244 -0.88 0.048481483 0.14262636 0.98858851 nan
0.12956139 0.131244 -0.88 0.022697218 0.17052236 0.98509234 nan
0.131244 0.131244 -0.88 -0.0056968927 0.20331736 0.97909629 nan
0.13322873 0.1315423 -0.88200003 -0.076598957 0.21552257 0.97348994 nan
0.13491517 0.1315423 -0.88200003 -0.095606022 0.24181116 0.96560186 nan
0.13660161 0.1315423 -0.88200003 -0.049953774 0.26620948 0.96261996 nan
0.13797447 0.131244 -0.88 -0.03825875 0.29515249 0.95468384 nan
0.13965708 0.131244 -0.88 -0.037984371 0.30949163 0.95014322 nan
0.1413397 0.131244 -0.88 -0.0054365178 0.3312771 0.94351792 nan
0.14302231 0.131244 -0.88 0.062456891 0.33830348 0.9389621 nan
0.14503381 0.1315423 -0.88200003 0.14925674 0.36595178 0.91858685 nan
0.14672025 0.1315423 -0.88200003 0.20904274 0.37769541 0.90202397 nan
0.1484067 0.1315423 -0.88200003 0.20406826 0.39709991 0.89480048 nan
0.15009314 0.1315423 -0.88200003 0.21740513 0.43371245 0.87443036 nan
0.15212373 0.13184057 -0.884 0.23519728 0.45642394 0.85811383 nan
0.153814 0.13184057 -0.884 0.20441858 0.49408084 0.84504259 nan
0.156032 0.13228799 -0.88700002 0.33921975 0.49368387 0.80075353 nan
0.15808363 0.13258627 -0.889 0.45707527 0.48293653 0.74689662 nan
0.15942399 0.13228799 -0.88700002 0.52816403 0.47463775 0.70410341 nan
0.16148329 0.13258627 -0.889 0.58380902 0.4267512 0.69068849 nan
0.16355023 0.13288456 -0.89099997 0.56900227 0.40200001 0.71737885 nan
0.16525386 0.13288456 -0.89099997 0.5517804 0.36955643 0.74764061 nan
0.16695751 0.13288456 -0.89099997 0.5568313 0.31932819 0.76679105 nan
0.16998623 0.13392855 -0.898 0.55881673 0.248127 0.79130065 nan
0.17132086 0.13363026 -0.89600003 0.53253382 0.1779684 0.82748711 nan
0.17303407 0.13363026 -0.89600003 0.51325923 0.083024465 0.85420835 nan
0.17474727 0.13363026 -0.89600003 0.31900331 -0.049251564 0.94647306 nan
0.17606659 0.13333198 -0.89399999 -0.13285275 -0.22145784 0.96607792 nan
0.17777598 0.13333198 -0.89399999 -0.56596076 -0.26713088 0.77995485 nan
0.17888306 0.13288456 -0.89099997 -0.66247356 -0.19568908 0.72307295 nan
0.1805867 0.13288456 -0.89099997 -0.59433764 -0.20271406 0.77824783 nan
0.18188117 0.13258627 -0.889 -0.58845603 -0.16837069 0.79080385 nan
0.18358099 0.13258627 -0.889 -0.57334077 -0.12830311 0.80920857 nan
0.18528083 0.13258627 -0.889 -0.52703786 -0.1603476 0.8345775 nan
0.18656 0.13228799 -0.88700002 -0.32713735 -0.24401458 0.91292828 nan
0.188256 0.13228799 -0.88700002 -0.1032755 -0.29975957 0.94840842 nan
0.189952 0.13228799 -0.88700002 -0.0053474968 -0.31455579 0.94922394 nan
0.19208013 0.13258627 -0.889 0.19609469 -0.3333222 0.92219478 nan
0.193344 0.13228799 -0.88700002 0.3701151 -0.39182973 0.84230894 nan
0.19504 0.13228799 -0.88700002 0.29704446 -0.49722648 0.81518734 nan
0.19762318 0.13288456 -0.89099997 0.23015434 -0.54741126 0.80459297 nan
0.19932683 0.13288456 -0.89099997 0.26105484 -0.57481211 0.77552658 nan
0.20103048 0.13288456 -0.89099997 0.28243923 -0.61250728 0.73828363 nan
0.20341673 0.13333198 -0.89399999 0.35354123 -0.59028172 0.72565562 nan
0.20512612 0.13333198 -0.89399999 0.52882171 -0.50191504 0.68441874 nan
0.20614143 0.13288456 -0.89099997 0.678994 -0.29954273 0.67025471 nan
0.20784508 0.13288456 -0.89099997 0.71504819 -0.17346051 0.67721313 nan
0.20954873 0.13288456 -0.89099997 0.7130723 -0.059174325 0.69858879 nan
0.21125238 0.13288456 -0.89099997 0.70300186 0.041687045 0.70996517 nan
0.21295601 0.13288456 -0.89099997 0.69843674 0.13219188 0.70335722 nan
0.014988663 0.12823634 -0.87099999 -0.41372535 0.80330807 0.42840108 nan
0.016654069 0.12823634 -0.87099999 -0.31529498 0.83541262 0.45019415 nan
0.018319476 0.12823634 -0.87099999 -0.2657575 0.84738404 0.45968831 nan
0.019984882 0.12823634 -0.87099999 -0.26586619 0.84617615 0.46184504 nan
0.02165029 0.12823634 -0.87099999 -0.21227352 0.85557103 0.47216338 nan
0.023315696 0.12823634 -0.87099999 -0.23921725 0.84823817 0.47251159 nan
0.024981104 0.12823634 -0.87099999 -0.34056661 0.82146442 0.45739549 nan
0.02664651 0.12823634 -0.87099999 -0.39722973 0.79186487 0.46385199 nan
0.028311918 0.12823634 -0.87099999 -0.39642811 0.78065032 0.48314577 nan
0.029977325 0.12823634 -0.87099999 -0.35484445 0.71916515 0.59740007 nan
0.031570073 0.12794188 -0.86900002 -0.45538932 0.69837129 0.55217582 nan
0.033231657 0.12794188 -0.86900002 -0.40930271 0.30512995 0.85986441 nan
0.034812931 0.12764741 -0.86699998 -0.40753311 0.2247629 0.88509804 nan
0.036386561 0.12735297 -0.86500001 -0.35669622 -0.023000831 0.93393719 nan
0.038040496 0.12735297 -0.86500001 -0.2620374 -0.071551166 0.96240163 nan
0.039694428 0.12735297 -0.86500001 -0.22578953 -0.11288869 0.9676131 nan
0.041348364 0.12735297 -0.86500001 -0.22513306 -0.22518191 0.94794953 nan
0.0430023 0.12735297 -0.86500001 -0.11344518 -0.28356999 0.95221752 nan
0.044501357 0.12691127 -0.86199999 -0.05631366 -0.33774164 0.93955272 nan
0.046310168 0.12735297 -0.86500001 -0.093819655 -0.33748332 0.93664449 nan
0.047964104 0.12735297 -0.86500001 -0.35655433 -0.33827731 0.87088311 nan
0.049618036 0.12735297 -0.86500001 -0.44140294 -0.37366304 0.81580597 nan
0.051094148 0.12691127 -0.86199999 -0.39319837 -0.42614257 0.81473774 nan
0.052619975 0.12661682 -0.86000001 -0.28504181 -0.42204127 0.86059994 nan
0.054390546 0.12691127 -0.86199999 -0.20654392 -0.33889186 0.91787368 nan
0.055908725 0.12661682 -0.86000001 0.13811207 -0.34216923 0.92943275 nan
0.057553098 0.12661682 -0.86000001 0.16704974 -0.24585533 0.95480341 nan
0.059197474 0.12661682 -0.86000001 0.15391009 -0.22831042 0.96134591 nan
0.060841847 0.12661682 -0.86000001 0.16489828 -0.24170262 0.9562366 nan
0.06263154 0.12691127 -0.86199999 0.17520249 -0.19885963 0.96424001 nan
0.064279735 0.12691127 -0.86199999 0.24391466 -0.21184841 0.94637513 nan
0.066157386 0.12735297 -0.86500001 0.29824567 -0.21286246 0.9304511 nan
0.067576133 0.12691127 -0.86199999 0.304894 -0.2340768 0.92317265 nan
0.06946525 0.12735297 -0.86500001 0.28869957 -0.25735089 0.92218387 nan
0.071119189 0.12735297 -0.86500001 0.29291403 -0.26745752 0.91796947 nan
0.072773121 0.12735297 -0.86500001 0.29444036 -0.28306279 0.91278708 nan
0.074427053 0.12735297 -0.86500001 0.33681503 -0.29810613 0.893134 nan
0.076080993 0.12735297 -0.86500001 0.3817223 -0.29583833 0.87565279 nan
0.077734925 0.12735297 -0.86500001 0.38017651 -0.3105751 0.87121117 nan
0.079572417 0.12764741 -0.86699998 0.37692577 -0.31796861 0.86995578 nan
0.081230171 0.12764741 -0.86699998 0.37437555 -0.34203044 0.86189222 nan
0.083079144 0.12794188 -0.86900002 0.37544712 -0.36954963 0.84998381 nan
0.084740728 0.12794188 -0.86900002 0.38212451 -0.38129506 0.8417809 nan
0.08660116 0.12823634 -0.87099999 0.36797097 -0.39282015 0.84278673 nan
0.088266566 0.12823634 -0.87099999 0.3351917 -0.41273665 0.84693277 nan
0.089931972 0.12823634 -0.87099999 0.31523347 -0.42971587 0.84615141 nan
0.091597378 0.12823634 -0.87099999 0.30931965 -0.43930161 0.84340703 nan
0.093476944 0.1285308 -0.87300003 0.2704922 -0.45517167 0.84832352 nan
0.095146172 0.1285308 -0.87300003 0.22775571 -0.47333732 0.85092831 nan
0.096815407 0.1285308 -0.87300003 0.17686267 -0.48300701 0.85756856 nan
0.098484635 0.1285308 -0.87300003 0.1518174 -0.4680087 0.87058562 nan
0.10015386 0.1285308 -0.87300003 0.14739847 -0.44969445 0.88093626 nan
0.10205637 0.12882525 -0.875 0.11803102 -0.44319221 0.88862211 nan
0.10372942 0.12882525 -0.875 0.11286921 -0.43388605 0.89386988 nan
0.10540248 0.12882525 -0.875 0.16433659 -0.42320257 0.89100683 nan
0.10707553 0.12882525 -0.875 0.22202863 -0.40559408 0.88667732 nan
0.10874858 0.12882525 -0.875 0.21531522 -0.38918358 0.89564246 nan
0.11042164 0.12882525 -0.875 0.20553185 -0.38028911 0.90174103 nan
0.1120947 0.12882525 -0.875 0.20994848 -0.34393969 0.91521972 nan
0.11376775 0.12882525 -0.875 0.23937324 -0.31414792 0.91870105 nan
0.11583661 0.12926693 -0.87800002 0.2458199 -0.27617526 0.92913926 nan
0.1175154 0.12926693 -0.87800002 0.21044631 -0.24142116 0.94732684 nan
0.11919419 0.12926693 -0.87800002 0.18981881 -0.1923819 0.96278661 nan
0.12087298 0.12926693 -0.87800002 0.18455116 -0.15254603 0.97091228 nan
0.12255178 0.12926693 -0.87800002 0.12591827 -0.090680897 0.98788744 nan
0.12423056 0.12926693 -0.87800002 0.05914608 -0.032527372 0.99771923 nan
0.12648298 0.12985586 -0.88200003 0.035188358 0.041028041 0.9985382 nan
0.12787877 0.12956139 -0.88 0.0086612338 0.098926045 0.99505705 nan
0.12956139 0.12956139 -0.88 -0.017485239 0.13319014 0.99093628 nan
0.131244 0.12956139 -0.88 -0.040184122 0.18303521 0.98228478 nan
0.13292663 0.12956139 -0.88 -0.099604085 0.21600184 0.97129917 nan
0.13460924 0.12956139 -0.88 -0.12886675 0.25754079 0.9576357 nan
0.13629186 0.12956139 -0.88 -0.087795153 0.3012957 0.9494803 nan
0.13797447 0.12956139 -0.88 -0.069389969 0.35157225 0.93358558 nan
0.13965708 0.12956139 -0.88 -0.068142518 0.38198546 0.92165273 nan
0.1413397 0.12956139 -0.88 -0.02811644 0.42108688 0.90658444 nan
0.14302231 0.12956139 -0.88 0.034180753 0.43621194 0.89919454 nan
0.14470494 0.12956139 -0.88 0.10788029 0.46442023 0.87901974 nan
0.14672025 0.12985586 -0.88200003 0.16844818 0.48516545 0.85804409 nan
0.1484067 0.12985586 -0.88200003 0.15386946 0.51298273 0.84449571 nan
0.15009314 0.12985586 -0.88200003 0.16348967 0.54057527 0.82525718 nan
0.15212373 0.1301503 -0.884 0.17862433 0.56198514 0.80762994 nan
0.15433601 0.130592 -0.88700002 0.1407719 0.59234625 0.79329014 nan
0.15638381 0.13088645 -0.889 0.27121982 0.58709449 0.76273185 nan
0.15808363 0.13088645 -0.889 0.39447519 0.56789774 0.7224136 nan
0.15978347 0.13088645 -0.889 0.46988979 0.55259705 0.68836039 nan
0.16148329 0.13088645 -0.889 0.50988656 0.55024856 0.66124302 nan
0.16355023 0.13118091 -0.89099997 0.47903535 0.57727236 0.66127288 nan
0.16525386 0.13118091 -0.89099997 0.44834065 0.59732527 0.66497612 nan
0.17988689 0.13191706 -0.89600003 -0.43842065 0.62852389 0.64245236 nan
0.18119474 0.1316226 -0.89399999 -0.39933714 0.61777604 0.67740875 nan
0.18290412 0.1316226 -0.89399999 -0.41037309 0.60688323 0.68065161 nan
0.183994 0.13118091 -0.89099997 -0.35490912 0.60640252 0.71155846 nan
0.18528083 0.13088645 -0.889 -0.27338779 0.5165059 0.81146836 nan
0.18656 0.130592 -0.88700002 -0.098490857 0.37214559 0.92293406 nan
0.18868047 0.13088645 -0.889 0.062640198 0.21259868 0.97512972 nan
0.19038029 0.13088645 -0.889 0.14386705 0.070502572 0.98708242 nan
0.19208013 0.13088645 -0.889 0.32588342 -0.079422534 0.94206804 nan
0.193344 0.130592 -0.88700002 0.47077879 -0.18581215 0.86246216 nan
0.19547977 0.13088645 -0.889 0.41110504 -0.31543845 0.85527259 nan
0.19762318 0.13118091 -0.89099997 0.34416744 -0.44192582 0.82840228 nan
0.19999798 0.1316226 -0.89399999 0.36483896 -0.52303934 0.77027422 nan
0.20170736 0.1316226 -0.89399999 0.32778004 -0.6156646 0.71660125 nan
0.20341673 0.1316226 -0.89399999 0.33892661 -0.59473467 0.72898513 nan
0.20512612 0.1316226 -0.89399999 0.46405163 -0.5188598 0.71794182 nan
0.20614143 0.13118091 -0.89099997 0.61249959 -0.32046857 0.72259533 nan
0.2085449 0.1316226 -0.89399999 0.66440558 -0.17366681 0.72691482 nan
0.21025428 0.1316226 -0.89399999 0.66686636 -0.049136035 0.74355555 nan
0.21196367 0.1316226 -0.89399999 0.66019303 0.05770506 0.74887598 nan
0.013323255 0.12657093 -0.87099999 -0.38960946 0.81653154 0.42600548 nan
0.014988663 0.12657093 -0.87099999 -0.40295455 0.81095827 0.42423385 nan
0.016654069 0.12657093 -0.87099999 -0.30304337 0.8425222 0.44533256 nan
0.018319476 0.12657093 -0.87099999 -0.2527757 0.85348815 0.4556998 nan
0.019984882 0.12657093 -0.87099999 -0.25137645 0.85230809 0.45867291 nan
0.02165029 0.12657093 -0.87099999 -0.19851314 0.86021042 0.46971336 nan
0.023369236 0.12686156 -0.87300003 -0.22553658 0.85301763 0.47063163 nan
0.024981104 0.12657093 -0.87099999 -0.29443339 0.82735121 0.47832936 nan
0.02664651 0.12657093 -0.87099999 -0.32042769 0.79601127 0.51350957 nan
0.028311918 0.12657093 -0.87099999 -0.34274518 0.75765592 0.55541265 nan
0.029977325 0.12657093 -0.87099999 -0.28681496 0.53535849 0.79443604 nan
0.031570073 0.12628029 -0.86900002 -0.42810249 0.51340854 0.7437337 nan
0.033231657 0.12628029 -0.86900002 -0.47863972 0.32060349 0.81738454 nan
0.034812931 0.12598966 -0.86699998 -0.41951495 -0.16082036 0.89338911 nan
0.036386561 0.12569903 -0.86500001 -0.38881102 -0.095171779 0.91638875 nan
0.038040496 0.12569903 -0.86500001 -0.38266858 -0.11167423 0.91711158 nan
0.039694428 0.12569903 -0.86500001 -0.073360153 -0.1100618 0.99121374 nan
0.041348364 0.12569903 -0.86500001 -0 -0.17105834 0.9852609 nan
0.0430023 0.12569903 -0.86500001 -0 -0.23130651 0.97288102 nan
0.044501357 0.12526308 -0.86199999 -0.10913729 -0.26671463 0.95757633 nan
0.046310168 0.12569903 -0.86500001 -0.22428879 -0.34195951 0.91255587 nan
0.047964104 0.12569903 -0.86500001 -0.25529841 -0.38264015 0.88792408 nan
0.049618036 0.12569903 -0.86500001 -0.31685892 -0.40727475 0.85657907 nan
0.051094148 0.12526308 -0.86199999 -0.30537194 -0.43052962 0.84934819 nan
0.052619975 0.12497245 -0.86000001 -0.32537737 -0.44164193 0.83611119 nan
0.054390546 0.12526308 -0.86199999 -0.11244746 -0.45028308 0.88577688 nan
0.055908725 0.12497245 -0.86000001 -0.0045883432 -0.37211847 0.92817396 nan
0.057553098 0.12497245 -0.86000001 0.13812646 -0.33140269 0.9333238 nan
0.059197474 0.12497245 -0.86000001 0.12123088 -0.29374748 0.94816428 nan
0.060983337 0.12526308 -0.86199999 0.16383755 -0.2839596 0.94473493 nan
0.06263154 0.12526308 -0.86199999 0.1913311 -0.2413563 0.95138818 nan
0.064503446 0.12569903 -0.86500001 0.25593457 -0.25302663 0.93299252 nan
0.066157386 0.12569903 -0.86500001 0.31110439 -0.26613924 0.91235077 nan
0.067576133 0.12526308 -0.86199999 0.32657421 -0.29032931 0.89947653 nan
0.06946525 0.12569903 -0.86500001 0.30487588 -0.32405129 0.89556766 nan
0.071119189 0.12569903 -0.86500001 0.30270517 -0.34938455 0.88673568 nan
0.072773121 0.12569903 -0.86500001 0.30811095 -0.36798424 0.87729996 nan
0.074427053 0.12569903 -0.86500001 0.34247527 -0.39248464 0.85361964 nan
0.076256901 0.12598966 -0.86699998 0.37792298 -0.40059254 0.83468544 nan
0.077914655 0.12598966 -0.86699998 0.38094744 -0.42117551 0.823098 nan
0.079755977 0.12628029 -0.86900002 0.38240033 -0.44954282 0.80726784 nan
0.081417561 0.12628029 -0.86900002 0.38414678 -0.47241172 0.79325813 nan
0.083079144 0.12628029 -0.86900002 0.37855881 -0.49058142 0.78487134 nan
0.084740728 0.12628029 -0.86900002 0.37204596 -0.5029844 0.78012085 nan
0.08660116 0.12657093 -0.87099999 0.3588503 -0.50966388 0.7819649 nan
0.088266566 0.12657093 -0.87099999 0.33257079 -0.51960903 0.78702176 nan
0.089931972 0.12657093 -0.87099999 0.30933183 -0.53222167 0.78806973 nan
0.091807708 0.12686156 -0.87300003 0.3005918 -0.53195113 0.79162669 nan
0.093691088 0.12715219 -0.875 0.2627264 -0.5341506 0.80352849 nan
0.095364146 0.12715219 -0.875 0.21618059 -0.53492236 0.81677651 nan
0.097037204 0.12715219 -0.875 0.1530128 -0.52411342 0.83779007 nan
0.098710254 0.12715219 -0.875 0.11813103 -0.49810755 0.85903078 nan
0.10038331 0.12715219 -0.875 0.12477567 -0.47010949 0.87374371 nan
0.10205637 0.12715219 -0.875 0.10656408 -0.45311493 0.88505989 nan
0.10372942 0.12715219 -0.875 0.10150824 -0.43905336 0.89270836 nan
0.10540248 0.12715219 -0.875 0.1534275 -0.42375091 0.89268994 nan
0.10683079 0.12686156 -0.87300003 0.20430999 -0.40012109 0.89339834 nan
0.10874858 0.12715219 -0.875 0.2003736 -0.37561685 0.90485483 nan
0.11042164 0.12715219 -0.875 0.19038121 -0.36646509 0.91074598 nan
0.1120947 0.12715219 -0.875 0.18379936 -0.33599737 0.92375511 nan
0.11376775 0.12715219 -0.875 0.21381502 -0.30616981 0.92765474 nan
0.11583661 0.12758815 -0.87800002 0.2198804 -0.2785759 0.93490529 nan
0.1175154 0.12758815 -0.87800002 0.1724886 -0.25536248 0.95133477 nan
0.1194657 0.12787877 -0.88 0.15107119 -0.21737881 0.96432567 nan
0.12087298 0.12758815 -0.87800002 0.14019178 -0.18346837 0.9729777 nan
0.12255178 0.12758815 -0.87800002 0.068438463 -0.13345441 0.98868901 nan
0.12423056 0.12758815 -0.87800002 0.00010269078 -0.095901497 0.99539077 nan
0.12619616 0.12787877 -0.88 -0.029942295 -0.038920958 0.9987936 nan
0.12758815 0.12758815 -0.87800002 -0.044752814 0.01790783 0.99883759 nan
0.12956139 0.12787877 -0.88 -0.065451868 0.050516549 0.99657625 nan
0.131244 0.12787877 -0.88 -0.094464414 0.097294934 0.99076241 nan
0.13292663 0.12787877 -0.88 -0.16064468 0.14301677 0.97659588 nan
0.13460924 0.12787877 -0.88 -0.19463502 0.20308718 0.95962119 nan
0.13629186 0.12787877 -0.88 -0.16224398 0.2653707 0.95039755 nan
0.13797447 0.12787877 -0.88 -0.13545275 0.33253527 0.93331289 nan
0.13965708 0.12787877 -0.88 -0.1267359 0.37690261 0.91754144 nan
0.1413397 0.12787877 -0.88 -0.081288666 0.4330093 0.89771652 nan
0.14269727 0.12758815 -0.87800002 -0.015199419 0.46179765 0.88685507 nan
0.14470494 0.12787877 -0.88 0.050605971 0.4991135 0.86505765 nan
0.14672025 0.12816942 -0.88200003 0.11386877 0.53387851 0.83785897 nan
0.1484067 0.12816942 -0.88200003 0.10158809 0.56792212 0.81678903 nan
0.15009314 0.12816942 -0.88200003 0.11199706 0.59567106 0.79538208 nan
0.15212373 0.12846005 -0.884 0.1314732 0.61672437 0.77612233 nan
0.153814 0.12846005 -0.884 0.099547468 0.64203924 0.76018161 nan
0.156032 0.128896 -0.88700002 0.22987121 0.63243461 0.73972011 nan
0.157728 0.128896 -0.88700002 0.35854653 0.60985303 0.70676994 nan
0.15978347 0.12918663 -0.889 0.43827844 0.58954817 0.6784873 nan
0.16148329 0.12918663 -0.889 0.48223713 0.58196741 0.65479869 nan
0.16355023 0.12947726 -0.89099997 0.45895746 0.60149592 0.65388125 nan
0.16525386 0.12947726 -0.89099997 0.43340161 0.61839962 0.65554923 nan
0.18461351 0.12991321 -0.89399999 -0.23422614 0.68219018 0.69264317 nan
0.18528083 0.12918663 -0.889 -0.06910371 0.63173342 0.77209944 nan
0.18656 0.128896 -0.88700002 0.069860704 0.56178206 0.82433027 nan
0.18868047 0.12918663 -0.889 0.18402916 0.445595 0.8761155 nan
0.19038029 0.12918663 -0.889 0.25199595 0.32502082 0.91151488 nan
0.19208013 0.12918663 -0.889 0.40808982 0.17712893 0.89559364 nan
0.19377995 0.12918663 -0.889 0.53879279 0.04650357 0.84115386 nan
0.19591954 0.12947726 -0.89099997 0.50554025 -0.078554444 0.85921961 nan
0.19762318 0.12947726 -0.89099997 0.45367047 -0.22019224 0.86353832 nan
0.19999798 0.12991321 -0.89399999 0.47396207 -0.33371866 0.81485683 nan
0.20170736 0.12991321 -0.89399999 0.38140562 -0.47185385 0.79491115 nan
0.20341673 0.12991321 -0.89399999 0.31648889 -0.51854748 0.79431939 nan
0.20512612 0.12991321 -0.89399999 0.39647859 -0.52003992 0.75654697 nan
0.20683551 0.12991321 -0.89399999 0.52184045 -0.40182066 0.75247777 nan
0.20901145 0.13020386 -0.89600003 0.59835559 -0.24435504 0.76306039 nan
0.21072465 0.13020386 -0.89600003 0.61169815 -0.11987446 0.7819562 nan
0.21291205 0.13049448 -0.898 0.61202663 -0.0043499167 0.79082513 nan
0.010015387 0.12519233 -0.87300003 -0.35687464 0.82767427 0.43312329 nan
0.011657848 0.12490552 -0.87099999 -0.33984843 0.83415461 0.43438351 nan
0.013323255 0.12490552 -0.87099999 -0.38406852 0.81963503 0.42507619 nan
0.014988663 0.12490552 -0.87099999 -0.4076961 0.80478626 0.43139642 nan
0.016654069 0.12490552 -0.87099999 -0.31317875 0.82873613 0.46380556 nan
0.018319476 0.12490552 -0.87099999 -0.25974387 0.84046388 0.47555611 nan
0.019984882 0.12490552 -0.87099999 -0.26591492 0.82950813 0.49112689 nan
0.02165029 0.12490552 -0.87099999 -0.21124609 0.82826179 0.51899672 nan
0.023369236 0.12519233 -0.87300003 -0.20428318 0.81386399 0.54396117 nan
0.024981104 0.12490552 -0.87099999 -0.24854304 0.77126712 0.58598077 nan
0.02664651 0.12490552 -0.87099999 -0.27515283 0.71629959 0.64125329 nan
0.028311918 0.12490552 -0.87099999 -0.29563627 0.64171284 0.70767498 nan
0.029977325 0.12490552 -0.87099999 -0.32016039 0.017233029 0.94720662 nan
0.031570073 0.12461872 -0.86900002 -0.3414627 -0.025336897 0.9395538 nan
0.033231657 0.12461872 -0.86900002 -0.40592086 -0.18524498 0.89493716 nan
0.034812931 0.1243319 -0.86699998 -0.41743216 -0.18448867 0.88978338 nan
0.036386561 0.1240451 -0.86500001 -0.38399339 -0.21522209 0.89790231 nan
0.038040496 0.1240451 -0.86500001 -0.30976787 -0.24443634 0.91885507 nan
0.039694428 0.1240451 -0.86500001 -0.20097509 -0.17599775 0.96365649 nan
0.041348364 0.1240451 -0.86500001 -5.2489338e-07 -0.16960935 0.98551136 nan
0.0430023 0.1240451 -0.86500001 0.016885836 -0.21135911 0.97726256 nan
0.044656232 0.1240451 -0.86500001 -0.059162524 -0.25323454 0.96559423 nan
0.046310168 0.1240451 -0.86500001 -0.18945773 -0.34541452 0.91912711 nan
0.047964104 0.1240451 -0.86500001 -0.17896737 -0.39808273 0.89972264 nan
0.049618036 0.1240451 -0.86500001 -0.19483836 -0.39741638 0.89671522 nan
0.051094148 0.12361488 -0.86199999 -0.26901561 -0.40928119 0.87184834 nan
0.052742347 0.12361488 -0.86199999 -0.24562749 -0.42695141 0.8702755 nan
0.054390546 0.12361488 -0.86199999 -0.15504217 -0.41986001 0.89424795 nan
0.056038745 0.12361488 -0.86199999 -0.03213774 -0.40558907 0.91349041 nan
0.057686944 0.12361488 -0.86199999 0.058729328 -0.35186368 0.93420702 nan
0.059335139 0.12361488 -0.86199999 0.098819561 -0.32936975 0.93901557 nan
0.060983337 0.12361488 -0.86199999 0.13926548 -0.29030645 0.94674569 nan
0.062849514 0.1240451 -0.86500001 0.18998687 -0.28657344 0.93903178 nan
0.064503446 0.1240451 -0.86500001 0.27481362 -0.29191694 0.91611248 nan
0.066157386 0.1240451 -0.86500001 0.33406138 -0.32029694 0.88646096 nan
0.067576133 0.12361488 -0.86199999 0.34990001 -0.34952414 0.86913919 nan
0.06946525 0.1240451 -0.86500001 0.3318007 -0.39286885 0.85764933 nan
0.071119189 0.1240451 -0.86500001 0.32186338 -0.43756703 0.83960652 nan
0.072941378 0.1243319 -0.86699998 0.32576367 -0.47271249 0.81879234 nan
0.074599139 0.1243319 -0.86699998 0.3561973 -0.50480443 0.786318 nan
0.076432809 0.12461872 -0.86900002 0.38486198 -0.5256145 0.75869006 nan
0.077914655 0.1243319 -0.86699998 0.39080998 -0.55354667 0.73542744 nan
0.079755977 0.12461872 -0.86900002 0.38554987 -0.57959813 0.71792573 nan
0.081417561 0.12461872 -0.86900002 0.37059158 -0.6014185 0.70778364 nan
0.083079144 0.12461872 -0.86900002 0.36140788 -0.6078949 0.70699942 nan
0.084935755 0.12490552 -0.87099999 0.35385281 -0.61528665 0.70442218 nan
0.08660116 0.12490552 -0.87099999 0.33463582 -0.61904466 0.71049452 nan
0.088266566 0.12490552 -0.87099999 0.31213644 -0.61750388 0.72198331 nan
0.09013848 0.12519233 -0.87300003 0.28914121 -0.62301755 0.72680563 nan
0.091807708 0.12519233 -0.87300003 0.27188313 -0.61771274 0.73790967 nan
0.093691088 0.12547913 -0.875 0.2333177 -0.60681129 0.75983089 nan
0.095364146 0.12547913 -0.875 0.17917466 -0.6031031 0.77727932 nan
0.097037204 0.12547913 -0.875 0.10730883 -0.58791661 0.80177236 nan
0.098710254 0.12547913 -0.875 0.077327579 -0.57197309 0.81661946 nan
0.10038331 0.12547913 -0.875 0.088694766 -0.55079627 0.82991374 nan
0.10205637 0.12547913 -0.875 0.076242343 -0.53118354 0.84381932 nan
0.10372942 0.12547913 -0.875 0.082361005 -0.50896913 0.85683542 nan
0.10540248 0.12547913 -0.875 0.13078038 -0.49484012 0.85908651 nan
0.10707553 0.12547913 -0.875 0.1745048 -0.45990509 0.87065232 nan
0.10912144 0.12590936 -0.87800002 0.17540754 -0.44336784 0.87900919 nan
0.11080024 0.12590936 -0.87800002 0.15981971 -0.44276822 0.88227779 nan
0.11247902 0.12590936 -0.87800002 0.14810751 -0.41521206 0.89758736 nan
0.11415782 0.12590936 -0.87800002 0.18359761 -0.39115068 0.90182769 nan
0.11610047 0.12619616 -0.88 0.19091482 -0.34714195 0.91817427 nan
0.11778308 0.12619616 -0.88 0.14363007 -0.31220028 0.93909603 nan
0.1194657 0.12619616 -0.88 0.11657371 -0.27300358 0.95492387 nan
0.12087298 0.12590936 -0.87800002 0.09996438 -0.24006209 0.96559685 nan
0.12283093 0.12619616 -0.88 0.035970375 -0.20233457 0.97865564 nan
0.12451354 0.12619616 -0.88 -0.036006566 -0.16854011 0.98503697 nan
0.12619616 0.12619616 -0.88 -0.078542568 -0.11173027 0.99062979 nan
0.12787877 0.12619616 -0.88 -0.081417345 -0.054173183 0.99520677 nan
0.12926693 0.12590936 -0.87800002 -0.099374332 -0.017963693 0.99488795 nan
0.131244 0.12619616 -0.88 -0.13775402 0.032961223 0.98991781 nan
0.13292663 0.12619616 -0.88 -0.21691439 0.065361075 0.97400004 nan
0.13460924 0.12619616 -0.88 -0.26851773 0.12250265 0.95545352 nan
0.13629186 0.12619616 -0.88 -0.24074365 0.194591 0.95088214 nan
0.13797447 0.12619616 -0.88 -0.2062764 0.27261424 0.93975085 nan
0.13965708 0.12619616 -0.88 -0.19959731 0.33918345 0.91930169 nan
0.1413397 0.12619616 -0.88 -0.14592004 0.40022868 0.90472341 nan
0.14269727 0.12590936 -0.87800002 -0.070731983 0.44619465 0.89213634 nan
0.14437605 0.12590936 -0.87800002 -0.017600004 0.49331945 0.86967021 nan
0.14638755 0.12619616 -0.88 0.050707024 0.54045159 0.83984566 nan
0.14807016 0.12619616 -0.88 0.046375446 0.58031344 0.81307179 nan
0.14975278 0.12619616 -0.88 0.062468022 0.61558926 0.78558749 nan
0.15177958 0.12648298 -0.88200003 0.087198012 0.63974327 0.76362622 nan
