# .PCD v0.7 - Point Cloud Data file format
VERSION 0.7
FIELDS x y z normal_x normal_y normal_z curvature
SIZE 4 4 4 4 4 4 4
TYPE F F F F F F F
COUNT 1 1 1 1 1 1 1
WIDTH 594
HEIGHT 1
VIEWPOINT 0 0 0 1 0 0 0
POINTS 594
DATA ascii
-0.23946694 -0.097792782 -0.662 0.25043505 -0.5770523 0.77736282 0.020085301
-0.23857301 -0.097940505 -0.66299999 0.2793602 -0.58484697 0.76151937 0.019075619
-0.23731737 -0.097940505 -0.66299999 0.30890846 -0.60019284 0.73779678 0.016300116
-0.23606172 -0.097940505 -0.66299999 0.33825624 -0.60347438 0.7220813 0.014292828
-0.23480608 -0.097940505 -0.66299999 0.3800956 -0.60582274 0.69893217 0.01388121
-0.23425497 -0.098235957 -0.66500002 0.42687321 -0.58695626 0.68794006 0.013471775
-0.2333459 -0.09838368 -0.66600001 0.44213912 -0.55397379 0.7054261 0.017521087
-0.23208457 -0.09838368 -0.66600001 0.46611282 -0.54029942 0.70058209 0.02189626
-0.23116982 -0.098531395 -0.667 0.49619412 -0.51793736 0.69680142 0.026217731
-0.23059598 -0.098826848 -0.66900003 0.52984279 -0.49081209 0.691643 0.028923398
-0.22864337 -0.098531395 -0.667 0.55389315 -0.49663448 0.66824883 0.032696921
-0.22738014 -0.098531395 -0.667 0.57994628 -0.48633686 0.65355855 0.037580267
-0.22713394 -0.098974571 -0.67000002 0.64389455 -0.44795191 0.62027329 0.045083184
-0.22586505 -0.098974571 -0.67000002 0.70151651 -0.43398207 0.56527352 0.050483856
-0.22459614 -0.098974571 -0.67000002 0.74966961 -0.41042715 0.51917726 0.052538492
-0.23332696 -0.10399716 -0.704 -0.12056044 0.64318144 0.75616336 0.056821764
-0.23199366 -0.10399716 -0.704 -0.23789155 0.62419516 0.74416941 0.059500232
-0.23066036 -0.10399716 -0.704 -0.26134142 0.65384877 0.71005803 0.048159316
-0.22932707 -0.10399716 -0.704 -0.27835855 0.65272433 0.70460457 0.042631052
-0.22799377 -0.10399716 -0.704 -0.27825099 0.65262961 0.7047348 0.040764417
-0.22633852 -0.10384943 -0.70300001 -0.37333557 0.5985406 0.70878047 0.042665936
-0.2240469 -0.10340627 -0.69999999 -0.467098 0.55976456 0.68445826 0.024763925
-0.21922128 -0.10178131 -0.68900001 -0.21390791 -0.69092411 0.69055587 0.02299661
-0.21728383 -0.10148586 -0.68699998 -0.2340849 -0.68147379 0.69339579 0.029531626
-0.21598272 -0.10148586 -0.68699998 -0.24413688 -0.65456241 0.71550339 0.037266076
-0.21468163 -0.10148586 -0.68699998 -0.19707364 -0.60894293 0.76834279 0.041732792
-0.21338053 -0.10148586 -0.68699998 -0.23210697 -0.53320628 0.81352162 0.060670145
-0.21177073 -0.10133814 -0.68599999 -0.18515295 -0.448394 0.87444913 0.074079648
-0.20985791 -0.1010427 -0.68400002 -0.088701755 -0.39086112 0.91616583 0.086181104
-0.20856249 -0.1010427 -0.68400002 -0.04523851 -0.32395956 0.94498873 0.099474847
-0.20726706 -0.1010427 -0.68400002 0.02505606 -0.24283344 0.96974444 0.11514764
-0.20597164 -0.1010427 -0.68400002 0.064616159 -0.17038406 0.98325688 0.11453407
-0.20527469 -0.10133814 -0.68599999 -0.0098160831 -0.10345425 0.99458575 0.10762519
-0.20338081 -0.1010427 -0.68400002 0.083046556 -0.028525032 0.99613744 0.11499146
-0.20267628 -0.10133814 -0.68599999 0.071836703 -0.029958822 0.99696648 0.10357605
-0.20167062 -0.10148586 -0.68699998 0.11814937 0.059631258 0.99120373 0.10788294
-0.20036952 -0.10148586 -0.68699998 0.18094917 0.089532204 0.9794088 0.11259518
-0.19964796 -0.10178131 -0.68900001 0.28127331 0.30017453 0.91147178 0.11039809
-0.24661638 -0.098896921 -0.66100001 0.18711901 -0.4894886 0.85169679 0.020953253
-0.24536452 -0.098896921 -0.66100001 0.17282419 -0.51091677 0.84207833 0.022626366
-0.24448195 -0.099046536 -0.662 0.17722845 -0.52227902 0.83415508 0.021916525
-0.2432282 -0.099046536 -0.662 0.18860666 -0.54109991 0.81953561 0.021584084
-0.24197444 -0.099046536 -0.662 0.20206136 -0.55202764 0.80897278 0.021941261
-0.24072069 -0.099046536 -0.662 0.23526858 -0.5669536 0.78943801 0.022136312
-0.23982868 -0.099196151 -0.66299999 0.25726405 -0.58553767 0.76873982 0.020121541
-0.23857301 -0.099196151 -0.66299999 0.29338419 -0.59289235 0.74993628 0.018543476
-0.23803328 -0.099495389 -0.66500002 0.33386341 -0.59176618 0.73372203 0.013609686
-0.23677383 -0.099495389 -0.66500002 0.35396776 -0.59498656 0.72159392 0.011292753
-0.2355144 -0.099495389 -0.66500002 0.37575853 -0.59737456 0.70848376 0.010577548
-0.23460723 -0.099645004 -0.66600001 0.39745715 -0.58011287 0.7109831 0.0095935585
-0.23369627 -0.099794619 -0.667 0.41069141 -0.56282496 0.71732885 0.011589676
-0.23243304 -0.099794619 -0.667 0.43834275 -0.54019654 0.71836156 0.017477192
-0.23186299 -0.10009386 -0.66900003 0.4679434 -0.50973564 0.72194088 0.022846488
-0.23094067 -0.10024347 -0.67000002 0.48487401 -0.50110501 0.71679223 0.023939576
-0.22967176 -0.10024347 -0.67000002 0.50675428 -0.4858861 0.71211994 0.026351772
-0.22806196 -0.10009386 -0.66900003 0.52716547 -0.49508709 0.69064122 0.028795311
-0.22747295 -0.10039309 -0.671 0.58481145 -0.46319947 0.6659143 0.039624896
-0.22620216 -0.10039309 -0.671 0.62189341 -0.45569381 0.63686085 0.044619054
-0.22493136 -0.10039309 -0.671 0.71849507 -0.42326295 0.55191785 0.049651027
-0.23432693 -0.10518084 -0.70300001 -0.12313603 0.66206586 0.73926073 0.054250829
-0.23299553 -0.10518084 -0.70300001 -0.24513365 0.65599185 0.71385157 0.050172985
-0.2240469 -0.10473198 -0.69999999 -0.44362658 0.57707971 0.68569273 0.023031477
-0.22113031 -0.1039839 -0.69499999 -0.69740516 0.044733424 0.7152797 0.096166506
-0.21823268 -0.10323582 -0.69 -0.39372811 -0.55264121 0.73455155 0.050600126
-0.21692589 -0.10323582 -0.69 -0.42768875 -0.51280838 0.74438566 0.04753783
-0.21530662 -0.1030862 -0.68900001 -0.39304224 -0.51626116 0.76091546 0.044250682
-0.21400173 -0.1030862 -0.68900001 -0.39616355 -0.45785975 0.79587632 0.052386045
-0.21207942 -0.10278696 -0.68699998 -0.28342712 -0.38426265 0.87864178 0.074474841
-0.21047151 -0.10263734 -0.68599999 -0.22436212 -0.26730055 0.9371298 0.083983913
-0.20917231 -0.10263734 -0.68599999 -0.14652871 -0.18462448 0.97182471 0.096818872
-0.20787311 -0.10263734 -0.68599999 -0.091428876 -0.0688366 0.9934296 0.11165674
-0.20597164 -0.10233811 -0.68400002 0.0071669137 0.010545431 0.9999187 0.12346487
-0.20527469 -0.10263734 -0.68599999 -0.028941754 0.078525752 0.99649191 0.11077479
-0.20338081 -0.10233811 -0.68400002 0.038189765 0.13318531 0.99035513 0.12205666
-0.20267628 -0.10263734 -0.68599999 0.050041847 0.16271618 0.98540312 0.10990023
-0.20137706 -0.10263734 -0.68599999 0.057824079 0.19796497 0.97850204 0.11256225
-0.20007786 -0.10263734 -0.68599999 0.068590522 0.25396055 0.9647795 0.11193832
-0.24661638 -0.10014878 -0.66100001 0.21888591 -0.46679774 0.85684818 0.024948526
-0.24536452 -0.10014878 -0.66100001 0.2118426 -0.49020752 0.84547001 0.022606324
-0.24411266 -0.10014878 -0.66100001 0.1805049 -0.52400243 0.83236986 0.023949603
-0.2432282 -0.10030029 -0.662 0.20561466 -0.54396206 0.81352818 0.022028254
-0.24233997 -0.1004518 -0.66299999 0.23883244 -0.55306798 0.79816979 0.022740951
-0.24108432 -0.1004518 -0.66299999 0.24462529 -0.57016724 0.78426266 0.022058191
-0.24055214 -0.10075483 -0.66500002 0.30046269 -0.57180083 0.76339114 0.016976675
-0.23929271 -0.10075483 -0.66500002 0.32583019 -0.58236283 0.74477398 0.014010956
-0.23803328 -0.10075483 -0.66500002 0.34701967 -0.58508807 0.73297292 0.011106219
-0.23677383 -0.10075483 -0.66500002 0.35720903 -0.59415245 0.7206834 0.0098258229
-0.23586856 -0.10090633 -0.66600001 0.37120268 -0.58169067 0.72377104 0.0091994964
-0.23495948 -0.10105784 -0.667 0.37965125 -0.56474787 0.73275161 0.0099518402
-0.23439701 -0.10136087 -0.66900003 0.40249062 -0.52787745 0.74789494 0.013626534
-0.23313001 -0.10136087 -0.66900003 0.42128223 -0.51935995 0.74349612 0.015979143
-0.23220956 -0.10151238 -0.67000002 0.43683067 -0.50448537 0.74476397 0.020016013
-0.23128535 -0.10166389 -0.671 0.45644453 -0.48045915 0.74887741 0.020326817
-0.23001455 -0.10166389 -0.671 0.47007734 -0.4811213 0.73996592 0.020422619
-0.22874375 -0.10166389 -0.671 0.4805789 -0.47916001 0.73447233 0.022834929
-0.22781195 -0.1018154 -0.67199999 0.54386377 -0.4721421 0.69375366 0.032693055
-0.22653925 -0.1018154 -0.67199999 0.59077859 -0.46460789 0.6596365 0.037260432
-0.22526658 -0.1018154 -0.67199999 0.62233597 -0.46733624 0.62792909 0.039781101
-0.22569458 -0.10620922 -0.70099998 -0.34075662 0.69157797 0.63687116 0.033636421
-0.2240469 -0.1060577 -0.69999999 -0.38676986 0.65056074 0.6535899 0.028822629
-0.22208485 -0.10575469 -0.69800001 -0.51309156 0.535649 0.6706841 0.039656311
-0.21949778 -0.10514864 -0.69400001 -0.65770382 0.0071736732 0.75324261 0.094549164
-0.21818343 -0.10514864 -0.69400001 -0.6495899 -0.068363436 0.75720513 0.079430237
-0.2156191 -0.1045426 -0.69 -0.50058484 -0.34823927 0.79255551 0.051506341
-0.21431233 -0.1045426 -0.69 -0.53408283 -0.29484215 0.79235315 0.050689857
-0.21269684 -0.10439109 -0.68900001 -0.4747529 -0.27048591 0.83752447 0.05761173
-0.21047151 -0.10393655 -0.68599999 -0.3097845 -0.16554198 0.9362849 0.086388916
-0.20917231 -0.10393655 -0.68599999 -0.23196539 -0.055757508 0.97112477 0.10166124
-0.20787311 -0.10393655 -0.68599999 -0.16681837 0.024107855 0.98569292 0.10777439
-0.2065739 -0.10393655 -0.68599999 -0.16555761 0.10969979 0.98007983 0.10996807
-0.20527469 -0.10393655 -0.68599999 -0.14375061 0.19401976 0.97040826 0.11216197
-0.20338081 -0.10363353 -0.68400002 -0.032160204 0.26854551 0.96272999 0.10049553
-0.20208539 -0.10363353 -0.68400002 -0.010396584 0.30330876 0.95283568 0.10168567
-0.20137706 -0.10393655 -0.68599999 -0.021366663 0.34495822 0.93837488 0.094635896
-0.20036952 -0.10408806 -0.68699998 0.02583928 0.37035519 0.92853081 0.089357704
-0.19906841 -0.10408806 -0.68699998 0.08784318 0.41697893 0.90466142 0.082007572
-0.24698946 -0.10155404 -0.662 0.23545648 -0.48343173 0.84312165 0.030586783
-0.24536452 -0.10140064 -0.66100001 0.22509249 -0.48797083 0.84333736 0.023374883
-0.24411266 -0.10140064 -0.66100001 0.21754155 -0.51422828 0.8296054 0.022133412
-0.24359562 -0.10170744 -0.66299999 0.22716127 -0.5447734 0.80722976 0.020995982
-0.24233997 -0.10170744 -0.66299999 0.24729575 -0.55281007 0.79576749 0.019182352
-0.24181159 -0.10201426 -0.66500002 0.28925166 -0.5738439 0.7661832 0.015233417
-0.24055214 -0.10201426 -0.66500002 0.32185751 -0.57263458 0.75398779 0.012510733
-0.23965254 -0.10216767 -0.66600001 0.34863302 -0.5675689 0.74586904 0.011565363
-0.23839122 -0.10216767 -0.66600001 0.3686856 -0.56550592 0.73774922 0.010285275
-0.23712988 -0.10216767 -0.66600001 0.37435353 -0.56242949 0.73724651 0.010376296
-0.23622271 -0.10232107 -0.667 0.36817217 -0.55365521 0.74693716 0.012511183
-0.23495948 -0.10232107 -0.667 0.37213364 -0.54428571 0.75184411 0.013121509
-0.23474738 -0.10278129 -0.67000002 0.39905283 -0.48061585 0.78087461 0.020136956
-0.23347847 -0.10278129 -0.67000002 0.41719565 -0.46948844 0.77815711 0.019977558
-0.23255615 -0.10293469 -0.671 0.4271926 -0.46197361 0.7772302 0.02154897
-0.23128535 -0.10293469 -0.671 0.4461121 -0.45961836 0.76794201 0.022607647
-0.23035733 -0.10308809 -0.67199999 0.47317743 -0.44612643 0.75965422 0.024662323
-0.22908464 -0.10308809 -0.67199999 0.4716495 -0.44904175 0.75888628 0.026851844
-0.22781195 -0.10308809 -0.67199999 0.47087947 -0.45501286 0.75580162 0.027721407
-0.22755061 -0.10354831 -0.67500001 0.5770067 -0.41400117 0.70403576 0.046599939
-0.22627223 -0.10354831 -0.67500001 0.66513658 -0.40622419 0.6265583 0.054929618
-0.22340678 -0.10707662 -0.69800001 -0.34610367 0.69513762 0.63007611 0.03217043
-0.22113031 -0.1066164 -0.69499999 -0.51982397 0.49180973 0.6985029 0.071432173
-0.21949778 -0.106463 -0.69400001 -0.63604313 0.1726052 0.75210148 0.10594159
-0.21818343 -0.106463 -0.69400001 -0.63969916 0.070976086 0.7653414 0.090323389
-0.21655659 -0.1063096 -0.69300002 -0.60464716 -0.069609836 0.79344583 0.067721382
-0.21431233 -0.10584938 -0.69 -0.59165305 -0.13034181 0.79558647 0.05105745
-0.21269684 -0.10569598 -0.68900001 -0.55374038 -0.11600393 0.82456946 0.056439601
-0.21047151 -0.10523576 -0.68599999 -0.39467645 -0.079155274 0.91540432 0.081117436
-0.20917231 -0.10523576 -0.68599999 -0.29517996 0.042668529 0.95448846 0.095109403
-0.20787311 -0.10523576 -0.68599999 -0.24984407 0.11548938 0.96137416 0.10869712
-0.20597164 -0.10492896 -0.68400002 -0.16234921 0.26631814 0.95011443 0.10096353
-0.20467623 -0.10492896 -0.68400002 -0.10962746 0.30462149 0.94614351 0.095066957
-0.20338081 -0.10492896 -0.68400002 -0.069892332 0.33741683 0.93875712 0.085765421
-0.20208539 -0.10492896 -0.68400002 -0.081182666 0.37232152 0.92454642 0.080386095
-0.20078997 -0.10492896 -0.68400002 -0.03252342 0.43061921 0.90194762 0.073296756
-0.20036952 -0.10538916 -0.68699998 0.018027127 0.46928599 0.88286227 0.067458354
-0.19906841 -0.10538916 -0.68699998 0.071362756 0.52287489 0.84941697 0.058418013
-0.24698946 -0.1028078 -0.662 0.24312392 -0.47761282 0.84426111 0.031591229
-0.24536452 -0.1026525 -0.66100001 0.2394001 -0.49415603 0.83576167 0.02751299
-0.24411266 -0.1026525 -0.66100001 0.23868966 -0.50821781 0.8274914 0.023501031
-0.24433045 -0.1032737 -0.66500002 0.24794316 -0.58405626 0.77291816 0.016765712
-0.24307102 -0.1032737 -0.66500002 0.27971116 -0.58224267 0.76338398 0.015313141
-0.24181159 -0.1032737 -0.66500002 0.30311373 -0.57997537 0.75614208 0.012844814
-0.24055214 -0.1032737 -0.66500002 0.32600594 -0.57482898 0.75052768 0.011283603
-0.23965254 -0.10342899 -0.66600001 0.34955966 -0.56324273 0.74870938 0.012046366
-0.23839122 -0.10342899 -0.66600001 0.37353039 -0.5496155 0.74726027 0.012589972
-0.23712988 -0.10342899 -0.66600001 0.37780055 -0.5384692 0.75320488 0.013781521
-0.23622271 -0.10358429 -0.667 0.36566114 -0.51665449 0.77418345 0.016482785
-0.23566402 -0.10389489 -0.66900003 0.36333826 -0.46930024 0.80482453 0.022970829
-0.23474738 -0.10405019 -0.67000002 0.38510567 -0.44954515 0.80597937 0.026213793
-0.23382695 -0.10420549 -0.671 0.40341613 -0.42192858 0.81193084 0.027857631
-0.23255615 -0.10420549 -0.671 0.43036398 -0.41472086 0.80174398 0.029564792
-0.23163003 -0.10436078 -0.67199999 0.45254841 -0.41522095 0.78917134 0.031664193
-0.23035733 -0.10436078 -0.67199999 0.47075021 -0.40999207 0.78121752 0.033451449
-0.22908464 -0.10436078 -0.67199999 0.47329023 -0.40628463 0.78161967 0.035569135
-0.22882898 -0.10482668 -0.67500001 0.49355716 -0.35832083 0.79246926 0.046432666
-0.22755061 -0.10482668 -0.67500001 0.55045497 -0.34702402 0.75932449 0.050840009
-0.22627223 -0.10482668 -0.67500001 0.56592906 -0.35053164 0.74622506 0.053733457
-0.22113031 -0.10793266 -0.69499999 -0.46940193 0.53548086 0.70208406 0.078011945
-0.21949778 -0.10777736 -0.69400001 -0.55942655 0.39705163 0.72759336 0.074596092
-0.21818343 -0.10777736 -0.69400001 -0.59554499 0.29667264 0.74653298 0.073484957
-0.21655659 -0.10762206 -0.69300002 -0.62702203 0.12192835 0.76940036 0.063867055
-0.21462291 -0.10731146 -0.69099998 -0.61257869 0.039707769 0.78941166 0.056100689
-0.21269684 -0.10700087 -0.68900001 -0.5982573 0.0062662647 0.80127954 0.04995057
-0.21047151 -0.10653497 -0.68599999 -0.47385278 0.036038041 0.8798663 0.066978879
-0.20856249 -0.10622437 -0.68400002 -0.35147837 0.1513918 0.92387414 0.093213506
-0.20726706 -0.10622437 -0.68400002 -0.27806357 0.24183935 0.92962062 0.08632838
-0.20597164 -0.10622437 -0.68400002 -0.23537758 0.329741 0.91425836 0.086604513
-0.20467623 -0.10622437 -0.68400002 -0.15878747 0.39484027 0.90492415 0.073325559
-0.20308347 -0.10606907 -0.68300003 -0.079799369 0.43815055 0.89535248 0.061175872
-0.20178995 -0.10606907 -0.68300003 -0.0934835 0.47225678 0.87648988 0.054417759
-0.20049642 -0.10606907 -0.68300003 -0.040875953 0.515724 0.85577917 0.045273159
-0.20007786 -0.10653497 -0.68599999 -0.029871054 0.54022974 0.84098732 0.04606596
-0.19877866 -0.10653497 -0.68599999 0.021307208 0.57229567 0.81977051 0.041645203
-0.24433045 -0.10453313 -0.66500002 0.2458806 -0.60068029 0.76074046 0.015733019
-0.24343653 -0.10469032 -0.66600001 0.28584379 -0.58756042 0.75701129 0.013166019
-0.24217521 -0.10469032 -0.66600001 0.32034576 -0.56754166 0.75846887 0.01294738
-0.24091387 -0.10469032 -0.66600001 0.33594704 -0.56090111 0.75665689 0.013161988
-0.24001238 -0.10484751 -0.667 0.35745054 -0.53537881 0.76524425 0.016446406
-0.23874916 -0.10484751 -0.667 0.36316824 -0.51600486 0.77578855 0.018213309
-0.23748593 -0.10484751 -0.667 0.35182664 -0.50159162 0.7903316 0.021104081
-0.23693104 -0.10516191 -0.66900003 0.34065694 -0.44146213 0.83009887 0.02767875
-0.23566402 -0.10516191 -0.66900003 0.35226193 -0.43285704 0.82978696 0.029547527
-0.23474738 -0.1053191 -0.67000002 0.37464476 -0.38787523 0.84213656 0.032217458
-0.23382695 -0.10547628 -0.671 0.40542957 -0.38251519 0.83024639 0.037330635
-0.23255615 -0.10547628 -0.671 0.42984128 -0.37660566 0.82061243 0.036639854
-0.23163003 -0.10563347 -0.67199999 0.44566458 -0.35444739 0.8220402 0.03985364
-0.23035733 -0.10563347 -0.67199999 0.46856248 -0.34725016 0.81232166 0.040733889
-0.22976646 -0.10594787 -0.67400002 0.48774436 -0.30449441 0.81816185 0.045934707
-0.22848998 -0.10594787 -0.67400002 0.49192497 -0.31190857 0.81284869 0.048753589
-0.2278877 -0.10626224 -0.676 0.65556067 -0.31779426 0.68501616 0.069793224
-0.22660744 -0.10626224 -0.676 0.6927309 -0.3164238 0.64807403 0.068401121
-0.22113031 -0.10924891 -0.69499999 -0.39650425 0.62895346 0.66873157 0.082162857
-0.21949778 -0.10909171 -0.69400001 -0.48999727 0.53210127 0.69048601 0.076902181
-0.21818343 -0.10909171 -0.69400001 -0.51771736 0.43154144 0.73874271 0.066720955
-0.21655659 -0.10893453 -0.69300002 -0.59659362 0.26668414 0.75693834 0.066711038
-0.21462291 -0.10862014 -0.69099998 -0.62532735 0.20731595 0.75232035 0.052295677
-0.21300554 -0.10846294 -0.69 -0.62727141 0.14812171 0.76458508 0.040251192
-0.21047151 -0.10783418 -0.68599999 -0.5270831 0.14446485 0.83744448 0.053593535
-0.20917231 -0.10783418 -0.68599999 -0.45886469 0.21416965 0.86230767 0.059565693
-0.20726706 -0.10751979 -0.68400002 -0.3509835 0.32271162 0.87901527 0.070394285
-0.20597164 -0.10751979 -0.68400002 -0.29668853 0.3844578 0.87416714 0.069240406
-0.20467623 -0.10751979 -0.68400002 -0.23192199 0.43267679 0.87120789 0.060632765
-0.20308347 -0.1073626 -0.68300003 -0.11647972 0.49021971 0.86378074 0.045301378
-0.20178995 -0.1073626 -0.68300003 -0.14158279 0.50706267 0.85020107 0.040993966
-0.20049642 -0.1073626 -0.68300003 -0.10711551 0.54644418 0.83061737 0.035190731
-0.1992029 -0.1073626 -0.68300003 -0.047711611 0.58920974 0.80657029 0.028388483
-0.19790937 -0.1073626 -0.68300003 0.0019133985 0.61600804 0.78773761 0.024800776
-0.24343653 -0.10595165 -0.66600001 0.27722049 -0.5997048 0.75066847 0.013620313
-0.24326609 -0.10642891 -0.66900003 0.25989762 -0.60195559 0.75505155 0.026268151
-0.24199907 -0.10642891 -0.66900003 0.28137314 -0.55997771 0.77926517 0.03001713
-0.24073207 -0.10642891 -0.66900003 0.28542277 -0.52661866 0.80075383 0.033177428
-0.23946506 -0.10642891 -0.66900003 0.28580126 -0.47374058 0.83299923 0.036663037
-0.23819804 -0.10642891 -0.66900003 0.28986835 -0.43796447 0.8509779 0.038232744
-0.23728518 -0.106588 -0.67000002 0.29757011 -0.39571258 0.86882889 0.041624859
-0.23601629 -0.106588 -0.67000002 0.32158121 -0.37099186 0.87117767 0.042228375
-0.23509774 -0.10674708 -0.671 0.36639658 -0.35008243 0.86208802 0.045011446
-0.23382695 -0.10674708 -0.671 0.40666652 -0.31504917 0.85753506 0.045888308
-0.23290272 -0.10690617 -0.67199999 0.4231796 -0.27488935 0.86333936 0.0501641
-0.23163003 -0.10690617 -0.67199999 0.44394237 -0.25860539 0.85792685 0.049008716
-0.23035733 -0.10690617 -0.67199999 0.46426094 -0.24692878 0.85058099 0.049832307
-0.22976646 -0.10722435 -0.67400002 0.51806748 -0.2258908 0.82497251 0.063317418
-0.22916798 -0.10754251 -0.676 0.63385075 -0.20125565 0.74681282 0.07767611
-0.22856192 -0.10786068 -0.67799997 0.81758422 -0.13709648 0.55925006 0.078622647
-0.22727787 -0.10786068 -0.67799997 0.86955106 -0.12813956 0.47692886 0.06717696
-0.23132701 -0.11040608 -0.69400001 -0.029850706 0.92611885 0.37604907 0.01304116
-0.23001266 -0.11040608 -0.69400001 -0.076847278 0.9107095 0.40583596 0.021792615
-0.21786906 -0.11024699 -0.69300002 -0.47049269 0.48381853 0.73794055 0.073827192
-0.21655659 -0.11024699 -0.69300002 -0.53511167 0.39677474 0.74580508 0.056875031
-0.21462291 -0.10992881 -0.69099998 -0.60793906 0.25758529 0.75103921 0.053337608
-0.21269684 -0.10961064 -0.68900001 -0.61184371 0.2527439 0.74951172 0.037164893
-0.21047151 -0.10913338 -0.68599999 -0.56896734 0.21267554 0.79438365 0.037663508
-0.20856249 -0.10881521 -0.68400002 -0.48488528 0.32304808 0.81272763 0.046443727
-0.20696405 -0.10865612 -0.68300003 -0.37657708 0.39157277 0.83955967 0.054915585
-0.20567052 -0.10865612 -0.68300003 -0.31655195 0.41765425 0.85168052 0.051820599
-0.204377 -0.10865612 -0.68300003 -0.22578239 0.45685494 0.86041033 0.044895548
-0.20278612 -0.10849703 -0.68199998 -0.18384479 0.51256537 0.83873588 0.033046126
-0.20149449 -0.10849703 -0.68199998 -0.16982542 0.55150592 0.81670111 0.029492442
-0.20020285 -0.10849703 -0.68199998 -0.1325383 0.57870644 0.80469418 0.026231112
-0.19891122 -0.10849703 -0.68199998 -0.070027791 0.6153791 0.78511453 0.023290113
-0.19761959 -0.10849703 -0.68199998 -0.014360249 0.63998646 0.76825202 0.021154394
-0.24362971 -0.10785691 -0.67000002 0.13302648 -0.55315226 0.82239079 0.029972741
-0.2423608 -0.10785691 -0.67000002 0.16581523 -0.51509267 0.84094292 0.037557092
-0.24109191 -0.10785691 -0.67000002 0.20770484 -0.46781096 0.85907602 0.042761497
-0.239823 -0.10785691 -0.67000002 0.21014774 -0.42751592 0.8792429 0.045230307
-0.23855409 -0.10785691 -0.67000002 0.2259848 -0.39519709 0.89036518 0.047753707
-0.23763934 -0.10801788 -0.671 0.25845355 -0.36068884 0.89616156 0.054087713
-0.23636854 -0.10801788 -0.671 0.26571828 -0.32952589 0.90598369 0.056376543
-0.23509774 -0.10801788 -0.671 0.32114452 -0.27710322 0.90558267 0.060689699
-0.23417541 -0.10817886 -0.67199999 0.36870888 -0.22251929 0.90251809 0.065696739
-0.23290272 -0.10817886 -0.67199999 0.39721379 -0.19410339 0.89696443 0.061328296
-0.23163003 -0.10817886 -0.67199999 0.41146952 -0.16807581 0.89579213 0.059643347
-0.23035733 -0.10817886 -0.67199999 0.45843971 -0.16301849 0.87364644 0.061770286
-0.22976646 -0.10850082 -0.67400002 0.54512411 -0.13853768 0.82682955 0.077840023
-0.22916798 -0.10882279 -0.676 0.6662432 -0.090979852 0.74016398 0.087430775
-0.22856192 -0.10914474 -0.67799997 0.88203764 -0.025292587 0.47049969 0.073139064
-0.22727787 -0.10914474 -0.67799997 0.91868198 0.015053628 0.39471099 0.068227701
-0.21593159 -0.11123749 -0.69099998 -0.50513983 0.47586757 0.7199887 0.057639737
-0.21431233 -0.11107651 -0.69 -0.56979418 0.41304427 0.71044284 0.04254948
-0.21269684 -0.11091553 -0.68900001 -0.61170763 0.32866782 0.71957707 0.033507161
-0.20985791 -0.11011063 -0.68400002 -0.54847652 0.34790206 0.76035368 0.028405588
-0.20825757 -0.10994965 -0.68300003 -0.47288236 0.3839654 0.79306543 0.034593005
-0.20666102 -0.10978866 -0.68199998 -0.39385232 0.42160302 0.81678098 0.03930337
-0.20476714 -0.10946671 -0.68000001 -0.28298125 0.49574563 0.82107133 0.031018473
-0.20347929 -0.10946671 -0.68000001 -0.23366705 0.53454632 0.81219459 0.02782025
-0.20219144 -0.10946671 -0.68000001 -0.20835444 0.54626083 0.81128758 0.025263885
-0.20090361 -0.10946671 -0.68000001 -0.16907068 0.56470501 0.80778921 0.023406986
-0.19961576 -0.10946671 -0.68000001 -0.13498192 0.59481257 0.79245067 0.020052575
-0.19832791 -0.10946671 -0.68000001 -0.059414193 0.61511964 0.786192 0.019790888
-0.19704007 -0.10946671 -0.68000001 0.015173748 0.64476562 0.76422971 0.018401878
-0.19632797 -0.10978866 -0.68199998 0.064741433 0.66597545 0.74315906 0.018379707
-0.19503634 -0.10978866 -0.68199998 0.13220946 0.68718326 0.71435279 0.018818466
-0.24399333 -0.10928868 -0.671 -0.00042247406 -0.52597833 0.85049796 0.046762072
-0.24272254 -0.10928868 -0.671 0.052845787 -0.48381537 0.87357312 0.050819553
-0.24145174 -0.10928868 -0.671 0.11534724 -0.43320364 0.8938846 0.050324254
-0.24018094 -0.10928868 -0.671 0.14572622 -0.38503647 0.91132373 0.054974649
-0.23891014 -0.10928868 -0.671 0.18595564 -0.3373746 0.92282122 0.060397655
-0.23763934 -0.10928868 -0.671 0.20917234 -0.29152954 0.93341178 0.066021048
-0.23636854 -0.10928868 -0.671 0.22596806 -0.24519338 0.94277179 0.068597339
-0.23509774 -0.10928868 -0.671 0.26196483 -0.19904487 0.94432807 0.076253735
-0.23417541 -0.10945155 -0.67199999 0.30446815 -0.13052632 0.94353694 0.077425279
-0.23290272 -0.10945155 -0.67199999 0.35718286 -0.091358632 0.92955589 0.069804221
-0.23163003 -0.10945155 -0.67199999 0.43673056 -0.065345615 0.89721596 0.068374537
-0.23035733 -0.10945155 -0.67199999 0.46222839 -0.053530276 0.8851437 0.06755688
-0.23010735 -0.10994018 -0.67500001 0.59541053 -0.017565168 0.80322957 0.095470794
-0.22916798 -0.11010305 -0.676 0.70803946 -0.0033510472 0.70616496 0.095736638
-0.22889906 -0.11059168 -0.67900002 0.91429448 0.13738059 0.3810412 0.061214596
-0.22895399 -0.11124317 -0.68300003 0.86048555 0.48494777 0.15617424 0.061345525
-0.22999372 -0.11238329 -0.69 0.19086993 0.93422329 0.30132303 0.017565267
-0.22835551 -0.11222042 -0.68900001 0.176102 0.92482227 0.33718237 0.021744164
-0.22705062 -0.11222042 -0.68900001 0.13462988 0.91817445 0.37259978 0.025562836
-0.22574572 -0.11222042 -0.68900001 0.071074121 0.90142542 0.42706057 0.035489708
-0.21692589 -0.11238329 -0.69 -0.397111 0.61218208 0.68376607 0.07426089
-0.2156191 -0.11238329 -0.69 -0.46627009 0.53555018 0.70411515 0.059754435
-0.21400173 -0.11222042 -0.68900001 -0.5567978 0.43524939 0.70748442 0.04450696
-0.21207942 -0.11189467 -0.68699998 -0.5829643 0.42276463 0.69384623 0.033812206
-0.2095511 -0.11124317 -0.68300003 -0.52038074 0.43345201 0.7357468 0.024298865
-0.20795265 -0.1110803 -0.68199998 -0.46429166 0.43413636 0.77198368 0.023054931
-0.20605497 -0.11075455 -0.68000001 -0.37940356 0.45647734 0.80478656 0.021772189
-0.20446602 -0.11059168 -0.67900002 -0.30053586 0.4924897 0.81678164 0.024408918
-0.20318006 -0.11059168 -0.67900002 -0.23969096 0.5313375 0.81254458 0.021694981
-0.2018941 -0.11059168 -0.67900002 -0.22157674 0.5402351 0.8118189 0.022771107
-0.20060816 -0.11059168 -0.67900002 -0.17874229 0.56046093 0.80866235 0.019726647
-0.19961576 -0.11075455 -0.68000001 -0.12698717 0.5812723 0.80373937 0.021154888
-0.19803625 -0.11059168 -0.67900002 -0.051563196 0.59302002 0.80353504 0.021373559
-0.19675031 -0.11059168 -0.67900002 0.011299268 0.61079198 0.7917105 0.021413721
-0.19546436 -0.11059168 -0.67900002 0.066924013 0.61889881 0.78261459 0.01872793
-0.19503634 -0.1110803 -0.68199998 0.12524286 0.67971933 0.72270036 0.018937973
-0.24399333 -0.11055948 -0.671 -0.091669679 -0.47934562 0.87282556 0.058982614
-0.24380773 -0.11105379 -0.67400002 -0.36578855 -0.34592807 0.86402118 0.058601659
-0.24181157 -0.11072425 -0.67199999 -0.1134842 -0.36440256 0.92430091 0.075807691
-0.24053888 -0.11072425 -0.67199999 -0.060444206 -0.30506015 0.95041299 0.069394588
-0.23891014 -0.11055948 -0.671 0.12144943 -0.27688432 0.95319736 0.067617305
-0.23763934 -0.11055948 -0.671 0.1677483 -0.23332673 0.95782 0.074765742
-0.23636854 -0.11055948 -0.671 0.16013458 -0.16871677 0.97256964 0.076984413
-0.23509774 -0.11055948 -0.671 0.21600355 -0.11856853 0.96916664 0.08143004
-0.23417541 -0.11072425 -0.67199999 0.25266162 -0.067558765 0.96519321 0.083373003
-0.23290272 -0.11072425 -0.67199999 0.33702511 -0.0036425153 0.94148862 0.08615388
-0.23163003 -0.11072425 -0.67199999 0.40762484 0.041754585 0.91219443 0.076305896
-0.23035733 -0.11072425 -0.67199999 0.47071478 0.062024619 0.88010252 0.071301416
-0.23010735 -0.11121856 -0.67500001 0.58480525 0.11791737 0.80255741 0.096321225
-0.22916798 -0.11138332 -0.676 0.74516821 0.13845259 0.65234607 0.092682444
-0.22856192 -0.11171285 -0.67799997 0.8749094 0.23119645 0.42553714 0.07561627
-0.22895399 -0.1125367 -0.68300003 0.81557906 0.55495816 0.16386673 0.063179992
-0.22766045 -0.1125367 -0.68300003 0.76475942 0.6177426 0.18313172 0.068024948
-0.2273612 -0.113031 -0.68599999 0.4790352 0.8572787 0.18867575 0.061119728
-0.22639154 -0.11319577 -0.68699998 0.27554762 0.91653043 0.289906 0.040217686
-0.22509043 -0.11319577 -0.68699998 0.19234893 0.9142642 0.35654303 0.032662023
-0.21338053 -0.11319577 -0.68699998 -0.52213359 0.57506919 0.62981898 0.047728598
-0.21177073 -0.113031 -0.68599999 -0.54879701 0.50918037 0.66299105 0.035461962
-0.2095511 -0.1125367 -0.68300003 -0.50926983 0.47988546 0.71439081 0.025985913
-0.20795265 -0.11237193 -0.68199998 -0.45950174 0.46151996 0.75885278 0.021553114
-0.20605497 -0.1120424 -0.68000001 -0.40097815 0.46432227 0.78969693 0.017147582
-0.20446602 -0.11187763 -0.67900002 -0.32084957 0.48446339 0.81384927 0.019854933
-0.20318006 -0.11187763 -0.67900002 -0.27107853 0.50315005 0.82058305 0.021562895
-0.2018941 -0.11187763 -0.67900002 -0.22904131 0.51495123 0.8260541 0.019008359
-0.20060816 -0.11187763 -0.67900002 -0.19188383 0.52733707 0.8277055 0.01848929
-0.19932221 -0.11187763 -0.67900002 -0.14422509 0.5353049 0.83225465 0.021030495
-0.19803625 -0.11187763 -0.67900002 -0.070905983 0.55502474 0.82880628 0.021717764
-0.19646053 -0.11171285 -0.67799997 -0.00060723728 0.56147248 0.82749522 0.019540554
-0.19517648 -0.11171285 -0.67799997 0.066882566 0.5617156 0.82462257 0.021090198
-0.19389242 -0.11171285 -0.67799997 0.1382599 0.56714356 0.81193125 0.023467289
-0.25111246 -0.11449686 -0.68699998 -0.72548747 0.24655908 0.64255482 0.017636092
-0.24981135 -0.11449686 -0.68699998 -0.73400486 0.24981496 0.63152945 0.018309008
-0.24380773 -0.11233027 -0.67400002 -0.46956185 -0.22362143 0.85411084 0.051175058
-0.24253125 -0.11233027 -0.67400002 -0.41610697 -0.19618645 0.88789964 0.062488168
-0.24053888 -0.11199694 -0.67199999 -0.14631088 -0.24344301 0.95881623 0.073473662
-0.23926619 -0.11199694 -0.67199999 -0.059838519 -0.16895735 0.98380536 0.075916313
-0.23763934 -0.11183028 -0.671 0.08034873 -0.14164041 0.98665196 0.081059061
-0.23636854 -0.11183028 -0.671 0.10956012 -0.063915439 0.99192315 0.081590526
-0.23509774 -0.11183028 -0.671 0.12898402 0.0028277747 0.99164271 0.084829219
-0.23417541 -0.11199694 -0.67199999 0.20845583 0.053651962 0.9765591 0.095342778
-0.23290272 -0.11199694 -0.67199999 0.29677129 0.105329 0.94912207 0.091837145
-0.23163003 -0.11199694 -0.67199999 0.38369381 0.14656122 0.91175592 0.087559924
-0.23035733 -0.11199694 -0.67199999 0.47354159 0.17706338 0.86279023 0.07477019
-0.22976646 -0.11233027 -0.67400002 0.5728097 0.1818102 0.79927105 0.093117662
-0.22882898 -0.11249693 -0.67500001 0.70015991 0.20908135 0.68268657 0.09407302
-0.2278877 -0.11266359 -0.676 0.77665794 0.29184201 0.55823886 0.076514378
-0.22794832 -0.11333024 -0.68000001 0.83370715 0.48689559 0.26050946 0.061968993
-0.22866042 -0.11433021 -0.68599999 0.45412663 0.86941314 0.19465294 0.049217317
-0.2273612 -0.11433021 -0.68599999 0.39076465 0.88929605 0.23760393 0.045263767
-0.226062 -0.11433021 -0.68599999 0.34938967 0.89969367 0.26168367 0.042957876
-0.2247628 -0.11433021 -0.68599999 0.26313612 0.91455913 0.30714986 0.037697457
-0.22378933 -0.11449686 -0.68699998 0.14230166 0.90983212 0.3898153 0.02229589
-0.21306993 -0.11433021 -0.68599999 -0.45323953 0.63217217 0.62843633 0.046401035
-0.21115333 -0.11399689 -0.68400002 -0.47300649 0.56297934 0.67773098 0.04075544
-0.20924428 -0.11366355 -0.68199998 -0.4717347 0.51264662 0.71739793 0.028681632
-0.20795265 -0.11366355 -0.68199998 -0.45105466 0.4843564 0.74963224 0.02253107
-0.20605497 -0.11333024 -0.68000001 -0.39655036 0.47013551 0.78849238 0.016640706
-0.20446602 -0.11316358 -0.67900002 -0.33581012 0.47172618 0.81529504 0.015571165
-0.20288081 -0.11299691 -0.67799997 -0.26975897 0.49307111 0.82711005 0.017811803
-0.20159675 -0.11299691 -0.67799997 -0.22195685 0.50242782 0.83564436 0.018459927
-0.2003127 -0.11299691 -0.67799997 -0.16671109 0.50650305 0.84596825 0.018339349
-0.19902864 -0.11299691 -0.67799997 -0.12158997 0.50737369 0.85310483 0.019704003
-0.19774459 -0.11299691 -0.67799997 -0.064333126 0.50983727 0.857862 0.01914278
-0.19646053 -0.11299691 -0.67799997 -0.0091221482 0.51435751 0.85752738 0.021380916
-0.19517648 -0.11299691 -0.67799997 0.066555262 0.52724206 0.84710467 0.022153212
-0.19389242 -0.11299691 -0.67799997 0.13570769 0.54313701 0.8286047 0.02185414
-0.24597813 -0.11461808 -0.68000001 -0.7879346 0.26199666 0.55724049 0.020489391
-0.24289109 -0.11377531 -0.67500001 -0.49125016 -0.12739088 0.86165237 0.06026509
-0.24125478 -0.11360675 -0.67400002 -0.39665949 -0.12714216 0.90911841 0.066954575
-0.23926619 -0.11326963 -0.67199999 -0.14348863 -0.098801248 0.98470783 0.070918985
-0.23799349 -0.11326963 -0.67199999 -0.038333546 -0.025554497 0.9989382 0.074543186
-0.23636854 -0.11310108 -0.671 0.036772408 0.039106745 0.99855828 0.083505914
-0.23509774 -0.11310108 -0.671 0.070016362 0.098179474 0.99270272 0.084624171
-0.23382695 -0.11310108 -0.671 0.17693368 0.15785247 0.97148198 0.089467689
-0.23255615 -0.11310108 -0.671 0.26535127 0.21522799 0.93982214 0.089447916
-0.23163003 -0.11326963 -0.67199999 0.3492102 0.22001058 0.91084999 0.091930375
-0.23035733 -0.11326963 -0.67199999 0.44417316 0.26708362 0.8552056 0.079158157
-0.22908464 -0.11326963 -0.67199999 0.51165193 0.27989855 0.81232321 0.072169259
-0.22848998 -0.11360675 -0.67400002 0.6595425 0.31332019 0.68325275 0.087212503
-0.22755061 -0.11377531 -0.67500001 0.749461 0.35428327 0.55927777 0.074520975
-0.22761311 -0.11444953 -0.67900002 0.77508599 0.53936243 0.32913518 0.057435639
-0.22766045 -0.11512376 -0.68300003 0.67173284 0.71081048 0.2086229 0.054835118
-0.22669835 -0.1152923 -0.68400002 0.58747071 0.77759898 0.22409377 0.062798686
-0.22540294 -0.1152923 -0.68400002 0.47047138 0.83571988 0.28324711 0.054975182
-0.22410752 -0.1152923 -0.68400002 0.35604748 0.87278318 0.33388603 0.046922907
-0.2228121 -0.1152923 -0.68400002 0.27051476 0.88443673 0.38025475 0.040951639
-0.22022127 -0.1152923 -0.68400002 0.11296272 0.87915802 0.46294785 0.027910301
-0.21115333 -0.1152923 -0.68400002 -0.45004755 0.60271829 0.65892941 0.043581396
-0.2095511 -0.11512376 -0.68300003 -0.47918889 0.55202198 0.68238539 0.033697616
-0.20734282 -0.11461808 -0.68000001 -0.39486715 0.49782476 0.77217257 0.021367846
-0.20605497 -0.11461808 -0.68000001 -0.39588338 0.47932574 0.78327727 0.017351689
-0.20416486 -0.11428096 -0.67799997 -0.31597084 0.49903825 0.80692214 0.019564426
-0.20288081 -0.11428096 -0.67799997 -0.27592361 0.49511656 0.82384807 0.019582167
-0.20100208 -0.11394385 -0.676 -0.15766244 0.54047632 0.82645512 0.024546297
-0.2003127 -0.11428096 -0.67799997 -0.17708835 0.49470177 0.85082895 0.020366021
-0.19902864 -0.11428096 -0.67799997 -0.11127822 0.4996857 0.85902941 0.020127503
-0.19716127 -0.11394385 -0.676 -0.018562675 0.51049268 0.85968173 0.021970406
-0.19588101 -0.11394385 -0.676 0.050957866 0.51169723 0.85765338 0.021257011
-0.19460075 -0.11394385 -0.676 0.094634056 0.51526755 0.85178864 0.021651769
-0.19389242 -0.11428096 -0.67799997 0.1411556 0.52134317 0.84159166 0.022398721
-0.19260837 -0.11428096 -0.67799997 0.19373575 0.53002214 0.82555622 0.022636436
-0.24726598 -0.11590593 -0.68000001 -0.77866387 0.30088821 0.55058974 0.017487543
-0.24525465 -0.11556502 -0.67799997 -0.77155817 0.14746761 0.61883068 0.04473253
-0.24289109 -0.11505368 -0.67500001 -0.55239272 0.0031748861 0.83357799 0.050152108
-0.24125478 -0.11488323 -0.67400002 -0.44998032 -0.017526433 0.89286649 0.064800113
-0.2399783 -0.11488323 -0.67400002 -0.39970177 -0.0077479184 0.91661251 0.06614916
-0.23799349 -0.11454232 -0.67199999 -0.11652499 0.055344537 0.99164456 0.073298737
-0.23636854 -0.11437187 -0.671 -0.003206972 0.14261611 0.98977292 0.078739814
-0.23509774 -0.11437187 -0.671 -0.0041192961 0.18443954 0.98283529 0.081813827
-0.23382695 -0.11437187 -0.671 0.12434916 0.24095431 0.96253753 0.08454711
-0.23255615 -0.11437187 -0.671 0.23754004 0.28420341 0.92887205 0.090319425
-0.23163003 -0.11454232 -0.67199999 0.32293269 0.33315951 0.88584375 0.09417738
-0.23035733 -0.11454232 -0.67199999 0.40937477 0.35753253 0.83939433 0.084491894
-0.22976646 -0.11488323 -0.67400002 0.59642768 0.36441329 0.71517634 0.091017656
-0.22848998 -0.11488323 -0.67400002 0.65642405 0.40254501 0.63801646 0.080810733
-0.22755061 -0.11505368 -0.67500001 0.71241075 0.44427347 0.54322362 0.06453757
-0.22727787 -0.11556502 -0.67799997 0.72870201 0.57277739 0.37539241 0.05426788
-0.22632715 -0.11573548 -0.67900002 0.70686668 0.61490899 0.34960908 0.053527839
-0.22636692 -0.11641728 -0.68300003 0.56881154 0.77790236 0.26706079 0.050529324
-0.2250734 -0.11641728 -0.68300003 0.46402645 0.83069235 0.30761951 0.046213273
-0.22377987 -0.11641728 -0.68300003 0.37185451 0.85459393 0.36248237 0.040794875
-0.22248635 -0.11641728 -0.68300003 0.29027706 0.86976278 0.39906383 0.035487767
-0.22119282 -0.11641728 -0.68300003 0.18402037 0.87241554 0.45279983 0.024539506
-0.2198993 -0.11641728 -0.68300003 0.11891282 0.86629355 0.48517555 0.026356438
-0.21731225 -0.11641728 -0.68300003 -0.055740133 0.83481228 0.54770577 0.028856646
-0.21084462 -0.11641728 -0.68300003 -0.40443221 0.64947438 0.6439082 0.043124579
-0.20924428 -0.11624682 -0.68199998 -0.41762424 0.58448547 0.69567722 0.03495926
-0.20703791 -0.11573548 -0.67900002 -0.36539 0.53829789 0.75942445 0.026278051
-0.20575196 -0.11573548 -0.67900002 -0.35263368 0.50970972 0.78475821 0.02282496
-0.20416486 -0.11556502 -0.67799997 -0.32380778 0.48974824 0.80950308 0.021365153
-0.20228235 -0.11522412 -0.676 -0.21133807 0.53005683 0.82120395 0.031536773
-0.20100208 -0.11522412 -0.676 -0.13764121 0.53988802 0.83040708 0.030673504
-0.19972181 -0.11522412 -0.676 -0.081790201 0.53482115 0.84099752 0.026973546
-0.19844155 -0.11522412 -0.676 -0.055092685 0.5124929 0.85692227 0.024495404
-0.19716127 -0.11522412 -0.676 -0.014998212 0.4921959 0.87035525 0.024852496
-0.19588101 -0.11522412 -0.676 0.064623736 0.50295401 0.86189401 0.02303442
-0.19431287 -0.11505368 -0.67500001 0.13476786 0.49292657 0.85957038 0.022418862
-0.1930345 -0.11505368 -0.67500001 0.17745973 0.49604419 0.84996951 0.022047704
-0.19175613 -0.11505368 -0.67500001 0.22156796 0.49389476 0.84081852 0.022480566
-0.19132431 -0.11556502 -0.67799997 0.24048814 0.49802941 0.83314604 0.022593528
-0.19004026 -0.11556502 -0.67799997 0.28594807 0.49502486 0.82047796 0.022785321
-0.24690235 -0.11702143 -0.67900002 -0.76347405 0.31585822 0.56333035 0.016132049
-0.24525465 -0.11684907 -0.67799997 -0.75647861 0.23671101 0.60967863 0.032325134
-0.24289109 -0.11633205 -0.67500001 -0.59006667 0.067255229 0.80454838 0.048149303
-0.24125478 -0.11615971 -0.67400002 -0.4792133 0.060546346 0.87560761 0.05528168
-0.2399783 -0.11615971 -0.67400002 -0.42207354 0.064973459 0.9042303 0.059558045
-0.23799349 -0.11581501 -0.67199999 -0.20493759 0.13663673 0.96919096 0.0699412
-0.23636854 -0.11564267 -0.671 -0.083611436 0.20297652 0.97560745 0.07156378
-0.23509774 -0.11564267 -0.671 -0.019963503 0.25955597 0.96552175 0.07776399
-0.23382695 -0.11564267 -0.671 0.077021822 0.31914988 0.94456923 0.079283051
-0.23255615 -0.11564267 -0.671 0.19001734 0.36604786 0.91098976 0.086250104
-0.23128535 -0.11564267 -0.671 0.32898954 0.42725512 0.84215128 0.086694755
-0.23001455 -0.11564267 -0.671 0.41919637 0.44126368 0.79344863 0.082525104
-0.22908464 -0.11581501 -0.67199999 0.51471472 0.43085152 0.74123931 0.065983094
-0.22781195 -0.11581501 -0.67199999 0.5785498 0.43541351 0.68970662 0.052165698
-0.2272135 -0.11615971 -0.67400002 0.67106223 0.50737232 0.54060042 0.055399515
-0.22660744 -0.11650439 -0.676 0.67585784 0.55820251 0.48127553 0.046157859
-0.22599381 -0.11684907 -0.67799997 0.67177886 0.64790273 0.35907555 0.045953073
-0.21893342 -0.11719377 -0.68000001 0.12758367 0.82984126 0.54321808 0.027070215
-0.21764557 -0.11719377 -0.68000001 0.060479037 0.83060634 0.5535661 0.029047485
-0.21603955 -0.11702143 -0.67900002 -0.038305897 0.80414718 0.59319484 0.032136515
-0.20832387 -0.11702143 -0.67900002 -0.34302908 0.58179373 0.73745996 0.033074051
-0.20703791 -0.11702143 -0.67900002 -0.35251692 0.54929024 0.75763595 0.028533056
-0.20544893 -0.11684907 -0.67799997 -0.33225033 0.56748885 0.75336981 0.032164421
-0.20416486 -0.11684907 -0.67799997 -0.31246653 0.55149734 0.77344382 0.03116421
-0.20228235 -0.11650439 -0.676 -0.1969749 0.57538009 0.79381269 0.037396345
-0.20100208 -0.11650439 -0.676 -0.12843749 0.55550629 0.82153302 0.038445052
-0.19972181 -0.11650439 -0.676 -0.050708719 0.5513075 0.83275974 0.033073287
-0.19844155 -0.11650439 -0.676 -0.015112415 0.53779876 0.84293783 0.029675446
-0.19686963 -0.11633205 -0.67500001 0.026339296 0.50500143 0.86271667 0.027245672
-0.19559126 -0.11633205 -0.67500001 0.11722992 0.50584638 0.85462081 0.025285104
-0.19431287 -0.11633205 -0.67500001 0.15974289 0.48957574 0.85720348 0.023477158
-0.19332047 -0.11650439 -0.676 0.18659541 0.47551531 0.85969031 0.022449899
-0.19260837 -0.11684907 -0.67799997 0.19609827 0.47267634 0.85914057 0.022216704
-0.19132431 -0.11684907 -0.67799997 0.2446171 0.47007021 0.84805459 0.023011319
-0.19004026 -0.11684907 -0.67799997 0.29572195 0.45273691 0.84117651 0.024700502
-0.24690235 -0.11830737 -0.67900002 -0.77613741 0.29890469 0.55521774 0.014931086
-0.24525465 -0.11813313 -0.67799997 -0.73578811 0.29519564 0.60948789 0.020542294
-0.24289109 -0.11761042 -0.67500001 -0.61237842 0.13998726 0.77807212 0.03939205
-0.24053888 -0.11708771 -0.67199999 -0.46507093 0.1354297 0.87485301 0.05568653
-0.23926619 -0.11708771 -0.67199999 -0.35522547 0.16709936 0.91972429 0.056248821
-0.23763934 -0.11691348 -0.671 -0.20198548 0.2431232 0.94873226 0.054865889
-0.23636854 -0.11691348 -0.671 -0.14617194 0.29094851 0.94550669 0.061185203
-0.23474738 -0.11673924 -0.67000002 -0.066116147 0.36517912 0.92858654 0.069722041
-0.23347847 -0.11673924 -0.67000002 0.037800003 0.39659208 0.91721636 0.065390125
-0.23220956 -0.11673924 -0.67000002 0.11239268 0.44426161 0.88881916 0.079578556
-0.23094067 -0.11673924 -0.67000002 0.25255635 0.50326097 0.82640415 0.090079524
-0.22967176 -0.11673924 -0.67000002 0.38154867 0.54418284 0.74718517 0.090434581
-0.22874375 -0.11691348 -0.671 0.49640942 0.51238334 0.7007432 0.075403728
-0.22781195 -0.11708771 -0.67199999 0.56132489 0.49103823 0.66618001 0.054039851
-0.22653925 -0.11708771 -0.67199999 0.59984148 0.50480592 0.62077457 0.044112328
-0.22627223 -0.11761042 -0.67500001 0.63868219 0.61622292 0.46081936 0.041260701
-0.22532718 -0.11778466 -0.676 0.61648637 0.64818764 0.44698688 0.042823803
-0.22470976 -0.11813313 -0.67799997 0.5750972 0.71968526 0.3889941 0.047646224
-0.22375526 -0.11830737 -0.67900002 0.48582858 0.77573419 0.4027493 0.049903631
-0.2224693 -0.11830737 -0.67900002 0.40855691 0.80090159 0.43776467 0.047046602
-0.2215091 -0.11848161 -0.68000001 0.315631 0.823722 0.4710193 0.041646663
-0.22022125 -0.11848161 -0.68000001 0.2089107 0.8340739 0.5105654 0.031833559
-0.21861146 -0.11830737 -0.67900002 0.13683303 0.82263678 0.5518564 0.026186448
-0.21732551 -0.11830737 -0.67900002 0.072272785 0.82226288 0.56450009 0.026251487
-0.21603955 -0.11830737 -0.67900002 -0.02191475 0.81181234 0.58350712 0.027487133
-0.21475361 -0.11830737 -0.67900002 -0.097892568 0.7985304 0.59394145 0.029560145
-0.20832387 -0.11830737 -0.67900002 -0.32602945 0.64705372 0.6892215 0.036400918
-0.20673297 -0.11813313 -0.67799997 -0.33035672 0.63295889 0.70016253 0.034405492
-0.20544893 -0.11813313 -0.67799997 -0.32606485 0.60711014 0.72463709 0.034665629
-0.20356262 -0.11778466 -0.676 -0.23627563 0.60794288 0.75801009 0.037800808
-0.20228235 -0.11778466 -0.676 -0.17714219 0.58716983 0.78984314 0.03652687
-0.20100208 -0.11778466 -0.676 -0.10400929 0.57271504 0.81312948 0.03603828
-0.19942637 -0.11761042 -0.67500001 -0.024169147 0.5656994 0.82425725 0.031616863
-0.198148 -0.11761042 -0.67500001 0.032943964 0.5443086 0.83823794 0.031962294
-0.19686963 -0.11761042 -0.67500001 0.078354061 0.52022111 0.85042977 0.031969376
-0.19559126 -0.11761042 -0.67500001 0.12911384 0.48972946 0.86226147 0.028362283
-0.19431287 -0.11761042 -0.67500001 0.17813578 0.46074829 0.86947036 0.02658012
-0.1930345 -0.11761042 -0.67500001 0.21244037 0.44523504 0.86984754 0.024406293
-0.19204021 -0.11778466 -0.676 0.23868784 0.42737851 0.87199527 0.023983974
-0.19075994 -0.11778466 -0.676 0.27888379 0.40679687 0.86990815 0.025294818
-0.18947966 -0.11778466 -0.676 0.32270494 0.37296841 0.86991739 0.024380002
-0.1887562 -0.11813313 -0.67799997 0.35178548 0.34551725 0.86997986 0.027141638
-0.18747215 -0.11813313 -0.67799997 0.43497896 0.33558404 0.8355698 0.03816852
-0.24525465 -0.11941718 -0.67799997 -0.72671992 0.2928246 0.62139511 0.019540185
-0.24289109 -0.1188888 -0.67500001 -0.61975515 0.23350459 0.74925244 0.027098579
-0.24053888 -0.1183604 -0.67199999 -0.48639986 0.22666913 0.84382236 0.043026157
-0.23926619 -0.1183604 -0.67199999 -0.42126626 0.25500804 0.87034792 0.042211358
-0.23763934 -0.11818427 -0.671 -0.28822201 0.30631176 0.90724921 0.04270371
-0.23601629 -0.11800814 -0.67000002 -0.19393098 0.35959023 0.91273528 0.053347506
-0.23439701 -0.11783201 -0.66900003 -0.090266399 0.43679142 0.89502251 0.062706888
-0.23347847 -0.11800814 -0.67000002 -0.0073411316 0.4565303 0.88967764 0.07293196
-0.23186299 -0.11783201 -0.66900003 0.059895262 0.54449147 0.83662528 0.081433557
-0.23059598 -0.11783201 -0.66900003 0.22480363 0.58327848 0.7805444 0.086008191
-0.22967176 -0.11800814 -0.67000002 0.341865 0.58925879 0.73205352 0.093643539
-0.22874375 -0.11818427 -0.671 0.47053048 0.58590293 0.65978694 0.075656176
-0.22747295 -0.11818427 -0.671 0.55432457 0.58920658 0.58784342 0.05805058
-0.22653925 -0.1183604 -0.67199999 0.58216733 0.58384228 0.56587058 0.04758599
-0.22593701 -0.11871267 -0.67400002 0.59939349 0.62793899 0.49640733 0.034527313
-0.22499385 -0.1188888 -0.67500001 0.56845421 0.69841784 0.43482453 0.038180776
-0.22371548 -0.1188888 -0.67500001 0.53687012 0.72239846 0.43578777 0.041891403
-0.22276664 -0.11906493 -0.676 0.48489273 0.7459594 0.4565345 0.047806751
-0.22148637 -0.11906493 -0.676 0.40086663 0.77482229 0.48883167 0.048075739
-0.22085759 -0.11941718 -0.67799997 0.32515535 0.8009823 0.50269413 0.045991682
-0.21957354 -0.11941718 -0.67799997 0.22862399 0.81732142 0.52888268 0.035966694
-0.21828948 -0.11941718 -0.67799997 0.13904193 0.82724547 0.54436398 0.026859185
-0.21700543 -0.11941718 -0.67799997 0.071459018 0.82081723 0.5667035 0.023876557
-0.20612316 -0.11906493 -0.676 -0.26290357 0.67421067 0.69016057 0.033354096
-0.20544893 -0.11941718 -0.67799997 -0.29422879 0.64664674 0.70375949 0.037680797
-0.20356262 -0.11906493 -0.676 -0.20638734 0.63740551 0.74237365 0.036031201
-0.20228235 -0.11906493 -0.676 -0.15547484 0.60812861 0.77846467 0.036816843
-0.20070475 -0.1188888 -0.67500001 -0.054660857 0.58761275 0.80729389 0.036741149
-0.19942637 -0.1188888 -0.67500001 0.00086970651 0.57138938 0.82067865 0.03703218
-0.198148 -0.1188888 -0.67500001 0.089478321 0.53164417 0.84222806 0.036560781
-0.19686963 -0.1188888 -0.67500001 0.1229275 0.49944279 0.85758132 0.03567002
-0.19559126 -0.1188888 -0.67500001 0.16982672 0.45992959 0.87156391 0.033111054
-0.19431287 -0.1188888 -0.67500001 0.20824495 0.42770451 0.87960386 0.030607507
-0.19274853 -0.11871267 -0.67400002 0.23769993 0.40585539 0.88248527 0.028955275
-0.19175613 -0.1188888 -0.67500001 0.27398401 0.36634704 0.88922584 0.029159065
-0.19075994 -0.11906493 -0.676 0.29455194 0.33546636 0.89481938 0.029220318
-0.24416947 -0.12016717 -0.67500001 -0.65555632 0.28240848 0.70035088 0.018758014
-0.24253125 -0.11998915 -0.67400002 -0.61731637 0.27541438 0.73693097 0.02032527
-0.24053888 -0.11963309 -0.67199999 -0.52490258 0.28854278 0.80076241 0.028559567
-0.23891014 -0.11945507 -0.671 -0.42980298 0.33557159 0.83824879 0.027959837
-0.23763934 -0.11945507 -0.671 -0.34107128 0.35632494 0.8698867 0.033290163
-0.23601629 -0.11927705 -0.67000002 -0.23961663 0.4232735 0.87374097 0.047686134
-0.23439701 -0.11909902 -0.66900003 -0.13717949 0.4972592 0.85668844 0.057768315
-0.23313001 -0.11909902 -0.66900003 -0.083796956 0.55479646 0.82775545 0.06828773
-0.23186299 -0.11909902 -0.66900003 0.00066855928 0.60460424 0.79652584 0.078446783
-0.22990659 -0.11874297 -0.667 -0.010584801 0.69874865 0.71528894 0.069810636
